x	y	z	nx	ny	nz
0.124700 -0.213000 -1.222600 0.561745 0.104146 0.820729 
0.124700 -0.226900 -1.221000 0.607124 0.075755 0.790988 
0.104000 -0.247600 -1.203900 0.668196 -0.016438 0.743803 
-1.013300 -1.116600 1.072100 0.120033 0.125876 0.984757 
0.124700 -0.247600 -1.219000 0.637443 -0.055187 0.768518 
-0.992600 -1.116600 1.070100 0.175940 -0.194080 0.965079 
0.104000 -0.268200 -1.202800 0.816936 0.001255 0.576728 
0.124700 -0.255700 -1.222600 0.719043 -0.360422 0.594199 
0.118200 -0.268200 -1.222600 0.802455 -0.187685 0.566428 
-0.909800 -0.371700 -0.511800 -0.300310 0.924302 -0.235543 
0.115500 -0.288900 -1.222600 0.923359 0.144622 0.355659 
0.124700 -0.268200 -1.236000 0.861118 -0.368854 0.349888 
-0.903500 -0.371700 -0.519100 -0.217101 0.938731 -0.267676 
-0.889100 -0.368700 -0.519100 -0.076496 0.910030 -0.407423 
-0.868400 -0.368400 -0.519100 0.085793 0.881326 -0.464655 
0.124700 -0.273600 -1.243300 0.846553 -0.374677 0.378107 
0.120300 -0.288900 -1.243300 0.956687 -0.060671 0.284725 
-0.889100 -0.371700 -0.526400 -0.043654 0.958095 -0.283106 
-0.020100 -0.309600 -1.167600 0.460221 0.472161 0.751838 
-0.868400 -0.371700 -0.525200 0.098775 0.928910 -0.356888 
0.000600 -0.306200 -1.181200 0.392182 0.481303 0.783926 
0.000600 -0.309600 -1.178200 0.323184 0.641619 0.695613 
-1.013300 -1.090300 1.032700 -0.075955 0.996734 0.027417 
-0.858600 -0.371700 -0.519100 0.650793 0.716110 -0.252300 
-0.847800 -0.371700 -0.508900 0.945453 -0.008965 -0.325637 
-0.847800 -0.363000 -0.498400 0.763638 0.613157 0.202227 
0.005900 -0.309600 -1.181200 0.306073 0.623124 0.719747 
-0.992600 -1.088200 1.032700 -0.092297 0.988590 -0.119043 
0.021300 -0.313800 -1.181200 0.027272 0.729609 0.683320 
0.021300 -0.330300 -1.161900 0.074827 0.732105 0.677069 
0.042000 -0.330300 -1.164100 -0.176623 0.551930 0.814971 
0.042000 -0.309800 -1.181200 -0.447312 0.486255 0.750645 
-0.971900 -1.083600 1.053400 0.225243 0.943445 0.243263 
-0.971900 -1.095900 1.069800 0.398801 0.314790 0.861316 
0.021300 -0.309600 -1.188000 0.066126 0.642659 0.763293 
-0.951200 -1.095900 1.053800 0.541292 0.531592 0.651470 
-0.951200 -1.095600 1.053400 0.553747 0.735309 0.390750 
0.042000 -0.309600 -1.181300 -0.385022 0.545676 0.744309 
-0.971900 -1.116600 1.065800 0.256173 -0.261610 0.930557 
-0.951200 -1.116600 1.060200 0.254709 0.109806 0.960763 
-0.971900 -1.088600 1.032700 0.007192 0.992524 -0.121841 
-0.951200 -1.088500 1.032700 0.257467 0.945904 0.197425 
0.042100 -0.309600 -1.181200 -0.642465 0.436798 0.629639 
0.062600 -0.309600 -1.162800 -0.689106 0.258207 0.677098 
-1.013300 -1.090800 1.012100 -0.063845 0.993828 -0.090718 
0.062600 -0.330300 -1.163400 -0.044514 -0.047867 0.997861 
-0.992600 -1.090300 1.012100 -0.059302 0.995035 -0.079932 
-0.971900 -0.387200 -0.519100 -0.240164 0.966054 0.095186 
-0.951200 -0.381200 -0.519100 -0.206023 0.976760 0.059112 
0.083300 -0.330300 -1.165000 0.296446 -0.359384 0.884852 
-1.032700 -1.095900 0.991400 -0.100557 0.970802 -0.217789 
-1.013300 -1.094000 0.991400 -0.093409 0.984667 -0.147331 
0.103500 -0.309600 -1.181200 0.903790 0.307303 0.297875 
-0.992600 -1.092100 0.991400 -0.121552 0.988023 -0.095058 
0.104000 -0.311500 -1.181200 0.880768 0.181057 0.437568 
0.104000 -0.330300 -1.178700 0.624261 -0.206304 0.753483 
-1.013300 -1.137400 1.072100 0.272481 0.036950 0.961451 
0.107200 -0.330300 -1.181200 0.654152 0.120443 0.746712 
-0.992600 -1.137400 1.065700 0.344215 0.049841 0.937567 
0.104000 -0.289100 -1.201900 0.866687 0.239095 0.437822 
0.104000 -0.309600 -1.182400 0.855179 0.330813 0.399038 
0.114400 -0.309600 -1.201900 0.780323 0.394556 0.485203 
-0.971900 -0.383500 -0.539800 -0.199160 0.978259 -0.057836 
-0.951200 -0.380000 -0.539800 -0.092336 0.990773 -0.099215 
0.124700 -0.330300 -1.196500 0.670897 0.351871 0.652750 
0.124700 -0.323800 -1.201900 0.697794 0.526122 0.486086 
-0.951200 -0.454600 -0.510800 0.452741 -0.411568 0.790972 
0.062600 -0.351000 -1.165300 0.284687 -0.160448 0.945098 
0.083300 -0.351000 -1.171500 0.396672 -0.225609 0.889804 
0.062600 -0.371700 -1.169000 0.376380 -0.199998 0.904621 
0.083300 -0.371700 -1.177900 0.392627 -0.262085 0.881565 
0.104000 -0.348600 -1.181200 0.475298 -0.139405 0.868711 
0.103100 -0.351000 -1.181200 0.441478 -0.211284 0.872041 
-0.971900 -0.388600 -0.560500 -0.170467 0.904786 -0.390261 
-0.951200 -0.384700 -0.560500 -0.142837 0.923159 -0.356896 
0.090700 -0.371700 -1.181200 0.398400 -0.264989 0.878099 
0.104000 -0.351000 -1.181700 0.454268 -0.203368 0.867342 
-0.951200 -0.392400 -0.575400 -0.231611 0.845279 -0.481519 
-0.971900 -0.392400 -0.566400 -0.206693 0.819840 -0.533985 
0.124700 -0.351000 -1.191900 0.547579 -0.060581 0.834558 
0.104000 -0.371700 -1.187100 0.423925 -0.246250 0.871578 
-0.971900 -0.404400 -0.581100 -0.306695 0.793575 -0.525525 
-0.951200 -0.396100 -0.581100 -0.329916 0.812536 -0.480563 
0.124700 -0.371700 -1.197300 0.441609 -0.244340 0.863296 
0.124700 -0.309600 -1.222300 0.712077 0.649930 0.265589 
0.124700 -0.309600 -1.222600 0.588325 0.806459 0.059137 
-0.992600 -1.157900 1.072900 0.429232 0.427436 0.795650 
0.124700 -0.304700 -1.243300 0.838053 0.436635 0.327136 
-0.930500 -0.377000 -0.519100 -0.214156 0.971963 -0.097079 
-0.971900 -1.137400 1.056900 0.168136 -0.155702 0.973390 
-0.951200 -1.137400 1.058900 -0.109335 -0.035876 0.993357 
-0.909800 -0.373300 -0.519100 -0.207942 0.962363 -0.174978 
0.124700 -0.288900 -1.254000 0.836280 0.045635 0.546400 
-0.971900 -1.157900 1.057600 0.340425 0.253855 0.905355 
-0.909800 -0.413200 -0.501900 0.338212 -0.625762 0.702876 
-0.951200 -1.157900 1.058500 -0.046075 -0.047916 0.997788 
-0.930500 -0.379500 -0.539800 -0.130977 0.986470 -0.098595 
-0.909800 -0.376300 -0.539800 -0.137787 0.982788 -0.123055 
-0.971900 -1.178600 1.069800 0.555501 0.202633 0.806448 
-0.889100 -0.413200 -0.513300 0.373737 -0.701199 0.607158 
0.126600 -0.226900 -1.222600 0.729741 0.010721 0.683640 
-0.951200 -1.178600 1.058100 0.253095 0.060185 0.965568 
0.127900 -0.247600 -1.222600 0.766291 -0.090334 0.636112 
-0.868400 -0.405400 -0.519100 0.514011 -0.700158 0.495551 
-0.880600 -0.413200 -0.519100 0.427289 -0.650712 0.627693 
-0.971900 -1.199300 1.068700 0.483617 -0.174871 0.857633 
-0.951200 -1.199300 1.057800 0.127617 -0.026012 0.991482 
-0.889100 -0.374900 -0.539800 -0.012617 0.997010 -0.076229 
0.145400 -0.223900 -1.243300 0.800616 -0.042359 0.597678 
0.145100 -0.226900 -1.243300 0.768616 -0.112549 0.629732 
-0.868400 -0.376000 -0.539800 0.059348 0.996031 -0.066332 
-0.930500 -1.137400 1.062300 0.242302 0.111742 0.963744 
-0.930500 -1.116600 1.053800 0.342412 0.509433 0.789450 
-0.868400 -0.413200 -0.527800 0.520206 -0.577749 0.628961 
-0.929800 -1.116600 1.053400 0.451981 0.514989 0.728354 
-0.910100 -1.137400 1.053400 0.490198 0.250990 0.834691 
-0.930500 -0.433900 -0.507700 0.420682 -0.557463 0.715724 
0.141100 -0.247600 -1.243300 0.811508 -0.276987 0.514522 
-0.930500 -1.157900 1.060500 0.128386 -0.098740 0.986796 
-0.914600 -1.157900 1.053400 0.516227 -0.103995 0.850115 
-0.909800 -0.432600 -0.519100 0.392535 -0.601991 0.695358 
-0.911800 -0.433900 -0.519100 0.406138 -0.561830 0.720693 
-0.909800 -1.137400 1.053200 0.710762 0.113970 0.694139 
-0.909800 -1.116600 1.037300 0.613960 0.504354 0.607190 
0.128100 -0.268200 -1.243300 0.774180 -0.481592 0.410749 
-0.909800 -1.157900 1.049200 0.809339 -0.158061 0.565674 
-0.930500 -0.448100 -0.519100 0.446908 -0.504200 0.738956 
-0.936900 -0.454600 -0.519100 0.475781 -0.408736 0.778824 
-0.906400 -1.116600 1.032700 0.747054 0.347945 0.566432 
-0.897700 -1.137400 1.032700 0.879958 0.101954 0.463982 
0.129400 -0.330300 -1.201900 0.702450 0.386088 0.597913 
-0.909800 -0.433900 -0.520200 0.413095 -0.546700 0.728335 
-0.902800 -1.157900 1.032700 0.930156 -0.214524 0.297974 
-0.930500 -0.454600 -0.522900 0.454348 -0.374811 0.808137 
0.137800 -0.351000 -1.201900 0.636384 0.056095 0.769330 
-0.930500 -1.178600 1.057100 0.083395 -0.021287 0.996289 
0.133000 -0.371700 -1.201900 0.506525 -0.195148 0.839851 
-0.909800 -0.454600 -0.533900 0.431070 -0.424186 0.796395 
-0.918200 -1.178600 1.053400 0.531181 -0.016148 0.847105 
0.124800 -0.309600 -1.222600 0.478595 0.850798 0.217003 
-0.889100 -0.418600 -0.519100 0.394533 -0.631940 0.667080 
0.143000 -0.330300 -1.222600 0.687176 0.594676 0.417312 
-0.930500 -1.199300 1.059500 0.206742 -0.039559 0.977595 
0.129300 -0.309600 -1.243300 0.566459 0.723649 0.394279 
-0.889100 -0.433900 -0.532300 0.439097 -0.546285 0.713279 
0.145400 -0.320300 -1.243300 0.436189 0.784369 0.441026 
0.145400 -0.330300 -1.226000 0.614026 0.619359 0.489250 
0.166100 -0.330300 -1.241800 0.403060 0.647167 0.647084 
0.166100 -0.329100 -1.243300 0.327635 0.767576 0.550893 
0.168900 -0.330300 -1.243300 0.299828 0.691050 0.657687 
-0.868400 -0.426700 -0.539800 0.395759 -0.558810 0.728770 
-0.878200 -0.433900 -0.539800 0.444256 -0.527289 0.724295 
0.145400 -0.332900 -1.222600 0.683907 0.525846 0.505725 
0.145400 -0.351000 -1.209800 0.703783 0.234643 0.670546 
-0.889100 -0.444600 -0.539800 0.453705 -0.443677 0.772853 
-0.898700 -0.454600 -0.539800 0.441045 -0.378688 0.813680 
0.159300 -0.351000 -1.222600 0.587854 0.364277 0.722308 
0.145400 -0.371700 -1.209400 0.569676 -0.026295 0.821448 
-0.930500 -0.383000 -0.560500 -0.189823 0.952242 -0.239170 
0.166100 -0.366100 -1.222600 0.471473 0.171122 0.865119 
0.166100 -0.371700 -1.221900 0.488738 -0.054581 0.870721 
-0.909800 -0.378000 -0.560500 -0.195628 0.975309 -0.102480 
-0.942200 -0.392400 -0.581100 -0.328362 0.866317 -0.376394 
-0.930500 -0.387900 -0.581100 -0.325909 0.902216 -0.282471 
0.166100 -0.351000 -1.226900 0.405139 0.433031 0.805200 
-0.909800 -0.380900 -0.581100 -0.280853 0.920599 -0.271328 
0.167300 -0.371700 -1.222600 0.467548 0.018044 0.883784 
-0.889100 -0.374900 -0.560500 -0.086309 0.995980 -0.023954 
0.186800 -0.338000 -1.243300 0.186424 0.566250 0.802874 
0.186800 -0.351000 -1.236300 0.267438 0.289665 0.919006 
-0.868400 -0.374200 -0.560500 -0.027299 0.997749 0.061257 
0.207500 -0.341200 -1.243300 0.346064 0.393959 0.851491 
0.207500 -0.351000 -1.239100 0.420596 0.190024 0.887124 
-0.889100 -0.375300 -0.581100 -0.183115 0.973689 -0.135642 
-0.868400 -0.371900 -0.581100 -0.060741 0.995003 -0.079246 
0.186800 -0.371700 -1.231900 0.379775 0.051710 0.923633 
0.207500 -0.371700 -1.238200 0.321985 -0.016967 0.946593 
-0.868400 -0.433900 -0.545100 0.373543 -0.465928 0.802108 
-0.889100 -0.454600 -0.544700 0.433262 -0.337592 0.835653 
-0.868400 -0.454600 -0.555600 0.411302 -0.348062 0.842427 
0.145400 -0.226900 -1.243700 0.841704 -0.125051 0.525259 
0.156200 -0.226900 -1.263900 0.864751 -0.161390 0.475562 
-0.971900 -0.475100 -0.506400 0.510576 -0.322848 0.796920 
0.145400 -0.247600 -1.250800 0.840856 -0.329930 0.429077 
-0.951200 -0.475100 -0.518900 0.508471 -0.316425 0.800832 
0.151000 -0.247600 -1.263900 0.856527 -0.346071 0.382879 
-0.912000 -1.199300 1.053400 0.728752 -0.126784 0.672938 
-0.909800 -1.178600 1.041600 0.942952 -0.109697 0.314337 
-0.909800 -1.184900 1.032700 0.988527 -0.123285 0.087270 
-0.908700 -1.178600 1.032700 0.967737 -0.221765 0.119608 
-0.891600 -1.116600 1.012100 0.831337 0.105267 0.545708 
-0.893600 -1.137400 1.012100 0.862699 -0.195913 0.466229 
-0.889100 -1.137400 1.004400 0.676991 -0.399961 0.617831 
-0.889100 -1.116600 1.009300 0.640259 -0.038535 0.767192 
-0.868400 -1.134000 0.991400 0.010304 -0.681257 0.731971 
-0.868400 -1.116600 1.001200 0.215035 -0.069249 0.974148 
-0.875700 -1.137400 0.991400 0.455132 -0.602217 0.655888 
-0.889100 -1.151600 0.991400 0.611479 -0.572796 0.545893 
-0.906400 -1.157900 1.012100 0.759189 -0.501211 0.415234 
-0.896600 -1.157900 0.991400 0.706270 -0.493929 0.507166 
-0.912600 -1.178600 1.012100 0.968742 -0.189895 0.159624 
-0.909800 -1.178600 0.994500 0.898931 -0.329490 0.288721 
-0.909800 -1.167200 1.012100 0.890992 -0.346722 0.293117 
-0.909800 -1.182500 0.991400 0.818686 -0.324345 0.473871 
-0.917100 -1.199300 1.012100 0.963002 -0.209349 0.169704 
-0.908300 -1.178600 0.991400 0.750600 -0.354824 0.557404 
0.166100 -0.226900 -1.280500 0.760289 -0.236849 0.604866 
0.166100 -0.234300 -1.284600 0.682173 -0.342296 0.646122 
0.159400 -0.247600 -1.284600 0.807259 -0.355480 0.471134 
-0.950900 -0.475100 -0.519100 0.484802 -0.315198 0.815853 
0.186800 -0.208300 -1.284600 -0.016947 -0.299759 0.953865 
0.170400 -0.226900 -1.284600 0.470843 -0.268071 0.840502 
-0.930500 -0.475100 -0.530100 0.463869 -0.303039 0.832462 
0.207500 -0.226700 -1.284600 -0.359740 -0.413438 0.836454 
-0.909800 -0.469900 -0.539800 0.430204 -0.288169 0.855502 
0.145400 -0.258500 -1.263900 0.807517 -0.433209 0.400307 
0.139900 -0.268200 -1.263900 0.783705 -0.348353 0.514254 
0.131700 -0.288900 -1.263900 0.763668 0.247067 0.596464 
0.145400 -0.268200 -1.273100 0.837082 -0.269671 0.475996 
-0.913000 -0.475100 -0.539800 0.417116 -0.217747 0.882383 
-0.909800 -0.475100 -0.541300 0.418552 -0.226530 0.879488 
-0.922700 -0.495800 -0.539800 0.423190 -0.091542 0.901405 
-0.909800 -0.495800 -0.546000 0.429086 -0.130889 0.893730 
0.152300 -0.268200 -1.284600 0.788474 -0.177308 0.588957 
0.145400 -0.288900 -1.278200 0.717502 0.222320 0.660125 
-0.889100 -0.475100 -0.551300 0.427114 -0.235370 0.873026 
0.150600 -0.288900 -1.284600 0.772388 0.289158 0.565513 
-0.868400 -0.471800 -0.560500 0.408913 -0.231135 0.882818 
-0.870100 -0.475100 -0.560500 0.403949 -0.200401 0.892561 
0.166100 -0.247600 -1.292400 0.544253 -0.384468 0.745636 
-0.889100 -0.495800 -0.555900 0.430294 -0.123878 0.894148 
0.186800 -0.226900 -1.290200 0.057094 -0.395188 0.916824 
-0.879600 -0.495800 -0.560500 0.428537 -0.136390 0.893171 
0.207500 -0.226900 -1.284700 -0.318829 -0.437550 0.840773 
-0.868400 -0.475100 -0.561200 0.406411 -0.193903 0.892878 
-0.868400 -0.495800 -0.565800 0.427342 -0.126181 0.895241 
0.186800 -0.247600 -1.301300 0.067547 -0.486017 0.871335 
0.207500 -0.247600 -1.295900 -0.359207 -0.434144 0.826129 
0.166100 -0.268200 -1.301400 0.716453 -0.169122 0.676826 
0.166100 -0.288900 -1.305000 0.654174 0.429872 0.622307 
-0.951200 -0.407200 -0.601800 -0.373951 0.826101 -0.421566 
0.186800 -0.254500 -1.305300 0.074730 -0.479561 0.874321 
0.170700 -0.268200 -1.305300 0.487943 -0.284697 0.825142 
0.207500 -0.264100 -1.305300 -0.380196 -0.453188 0.806271 
0.166400 -0.288900 -1.305300 0.638130 0.099804 0.763433 
0.186800 -0.268200 -1.312400 0.054668 -0.401749 0.914116 
0.207500 -0.268200 -1.307700 -0.519218 -0.282793 0.806499 
0.186800 -0.288900 -1.324800 0.142311 0.177529 0.973772 
0.207500 -0.288900 -1.313100 -0.585200 0.189023 0.788550 
0.228200 -0.212200 -1.263900 -0.251634 -0.499557 0.828929 
0.248900 -0.225500 -1.263900 -0.062648 -0.325379 0.943506 
-0.930500 -0.392400 -0.592600 -0.356290 0.858243 -0.369427 
0.207700 -0.226900 -1.284600 -0.434343 -0.411226 0.801399 
0.228200 -0.226900 -1.273600 -0.440492 -0.395955 0.805721 
-0.920600 -0.392400 -0.601800 -0.318881 0.859449 -0.399578 
-0.909800 -0.388600 -0.601800 -0.281490 0.877964 -0.387224 
0.248900 -0.226900 -1.264300 -0.053171 -0.238897 0.969588 
0.225100 -0.247600 -1.284600 -0.518950 -0.332421 0.787520 
0.228200 -0.247600 -1.282300 -0.545800 -0.310227 0.778371 
-0.847800 -1.137000 0.991400 -0.447704 -0.588042 0.673622 
-0.847800 -1.116600 1.005700 -0.204391 -0.147274 0.967747 
0.248900 -0.247600 -1.268600 -0.169424 -0.195598 0.965939 
-0.930500 -0.396700 -0.601800 -0.384154 0.838373 -0.386725 
0.228200 -0.253700 -1.284600 -0.596417 -0.232333 0.768316 
-0.909800 -0.392400 -0.609200 -0.253590 0.844035 -0.472543 
0.230100 -0.268200 -1.284600 -0.660595 0.020512 0.750462 
0.248900 -0.268200 -1.271500 -0.367969 -0.014904 0.929719 
0.223100 -0.288900 -1.284600 -0.691920 0.491127 0.529189 
0.228200 -0.288900 -1.279500 -0.527202 0.395106 0.752296 
0.228200 -0.278000 -1.284600 -0.670653 0.192350 0.716398 
-0.847600 -1.137400 0.991400 -0.580255 -0.663323 0.472554 
-0.827100 -1.137400 1.003600 0.079506 -0.467858 0.880220 
-0.827100 -1.116600 1.007700 0.187951 0.294637 0.936944 
-0.930500 -0.406000 -0.622500 -0.293739 0.872126 -0.391298 
-0.909800 -0.400000 -0.622500 -0.197061 0.869986 -0.451985 
0.248900 -0.288900 -1.270000 -0.060449 0.186505 0.980593 
-0.827100 -1.146000 0.991400 -0.199496 -0.936609 0.288036 
-0.889100 -0.382600 -0.601800 -0.236626 0.870517 -0.431519 
-0.868400 -0.376800 -0.601800 -0.191142 0.904038 -0.382335 
-0.806400 -1.131400 0.991400 0.736786 -0.267153 0.621109 
-0.806400 -1.116600 0.997200 0.629584 0.136047 0.764928 
-0.809300 -1.137400 0.991400 0.477430 -0.535575 0.696577 
-0.889100 -0.392400 -0.617300 -0.193141 0.825208 -0.530781 
-0.802500 -1.116600 0.991400 0.812816 0.393003 0.429974 
0.210600 -0.268200 -1.305300 -0.670644 -0.148239 0.726816 
0.228200 -0.268200 -1.286700 -0.733797 0.023235 0.678971 
-0.875500 -0.392400 -0.622500 -0.238107 0.829291 -0.505551 
-0.868400 -0.390000 -0.622500 -0.291292 0.807709 -0.512596 
-1.344300 -0.865800 0.970700 -0.002931 0.999790 -0.020264 
-0.889100 -0.396000 -0.622500 -0.190910 0.834511 -0.516861 
-1.328800 -0.868400 0.970700 0.226289 0.969766 -0.091363 
0.211900 -0.288900 -1.305300 -0.808375 0.176915 0.561454 
-1.344300 -0.868400 0.950600 0.134567 0.988648 -0.066833 
-1.344800 -0.868400 0.950000 0.139295 0.979386 -0.146290 
-0.909800 -0.407900 -0.643200 -0.104984 0.966199 -0.235450 
-0.951200 -0.402100 -0.663900 0.290745 0.834493 0.468069 
-0.951200 -0.409300 -0.643200 0.095753 0.958887 0.267147 
-0.930500 -0.405600 -0.663900 0.179775 0.933679 0.309718 
-0.930500 -0.410000 -0.643200 0.065939 0.976018 0.207462 
-1.357400 -0.868400 0.929300 0.330057 0.941175 -0.072476 
0.145400 -0.309600 -1.261000 0.543050 0.681336 0.490793 
0.145400 -0.307600 -1.263900 0.542492 0.604465 0.583373 
0.149100 -0.309600 -1.263900 0.379616 0.737733 0.558249 
-1.358000 -0.868400 0.908600 0.580823 0.798573 0.157878 
0.166100 -0.315900 -1.263900 0.266845 0.828601 0.492152 
-1.345700 -0.868400 0.887900 0.596617 0.651568 0.468516 
0.166100 -0.309600 -1.277400 0.451961 0.780805 0.431364 
0.166100 -0.306200 -1.284600 0.548263 0.701577 0.455189 
0.186800 -0.330300 -1.249900 0.147859 0.750084 0.644602 
0.186800 -0.320300 -1.263900 0.036639 0.882098 0.469640 
0.207500 -0.330300 -1.251300 0.090749 0.621415 0.778208 
0.207500 -0.319100 -1.263900 -0.101519 0.723718 0.682588 
0.172700 -0.309600 -1.284600 0.304229 0.868368 0.391640 
0.199700 -0.309600 -1.284600 -0.282215 0.884805 0.370776 
0.207500 -0.309600 -1.277700 -0.354904 0.777443 0.519255 
0.207500 -0.305600 -1.284600 -0.563067 0.741166 0.365551 
0.186800 -0.311900 -1.284600 -0.006959 0.940926 0.338540 
0.186800 -0.306100 -1.305300 0.119199 0.829456 0.545706 
0.186800 -0.309600 -1.291900 -0.106035 0.944877 0.309779 
0.207500 -0.297100 -1.305300 -0.548027 0.717949 0.429203 
-0.909800 -0.407700 -0.663900 0.067888 0.988187 0.137394 
-0.868400 -0.392400 -0.626300 -0.336373 0.826810 -0.450820 
-0.889100 -0.407400 -0.643200 -0.126668 0.949775 -0.286151 
-1.344300 -0.851900 0.867200 0.355966 0.837232 0.415127 
-0.868400 -0.401600 -0.643200 -0.370032 0.860039 -0.351297 
-1.344300 -0.868400 0.886500 0.528902 0.579895 0.619665 
-0.889100 -0.410000 -0.663900 -0.023641 0.995699 0.089585 
-0.868400 -0.406700 -0.663900 -0.261913 0.963018 -0.063228 
-1.323600 -0.864000 0.867200 0.502501 0.616826 0.605820 
-1.323600 -0.868400 0.869200 0.677275 0.261324 0.687756 
-0.856300 -0.392400 -0.519100 0.850486 -0.427090 0.307031 
-1.116700 -0.798900 0.681000 0.108757 0.926816 0.359421 
-1.116700 -0.806200 0.696900 0.163838 0.848822 0.502651 
-1.096000 -0.806200 0.685600 0.280722 0.807059 0.519472 
-1.096000 -0.803600 0.681000 0.247006 0.876848 0.412464 
-1.088300 -0.806200 0.681000 0.339965 0.767484 0.543499 
-1.096000 -0.819900 0.701700 0.403883 0.622799 0.670074 
-1.116700 -0.809200 0.701700 0.219567 0.764225 0.606424 
-0.847800 -0.378700 -0.539800 0.457892 0.843482 0.280843 
-0.847800 -0.392400 -0.531700 0.692038 -0.143670 0.707419 
-1.075400 -0.827000 0.691700 0.505073 0.288058 0.813587 
-1.075400 -0.812600 0.681000 0.496678 0.603549 0.623731 
-1.088900 -0.827000 0.701700 0.510638 0.133087 0.849433 
-0.836700 -0.392400 -0.539800 0.571857 0.130351 0.809931 
-1.116700 -0.793800 0.660300 0.020148 0.982264 0.186421 
-1.096000 -0.795700 0.660300 0.170720 0.937478 0.303297 
-0.847800 -0.410400 -0.539800 0.464621 -0.355315 0.811097 
-0.850400 -0.413200 -0.539800 0.425610 -0.450997 0.784511 
-1.075400 -0.806200 0.672800 0.416293 0.735784 0.534156 
-1.075400 -0.799600 0.660300 0.235977 0.896777 0.374307 
-1.063700 -0.827000 0.681000 0.659535 0.327435 0.676610 
-1.058100 -0.806200 0.660300 0.366243 0.745418 0.556972 
-0.847800 -0.373700 -0.560500 0.143216 0.982476 0.119292 
-1.054700 -0.827000 0.673400 0.555001 0.259128 0.790460 
-1.054700 -0.808000 0.660300 0.419095 0.627699 0.656014 
-0.827100 -0.379300 -0.560500 0.539433 0.760860 0.360700 
-0.827100 -0.392400 -0.545700 0.682141 0.213509 0.699355 
-1.035100 -0.827000 0.660300 0.507047 0.269174 0.818809 
-0.847800 -0.413200 -0.541100 0.427636 -0.427672 0.796382 
-1.064300 -0.847700 0.681000 0.685723 -0.205258 0.698321 
-1.075400 -0.847700 0.693200 0.348995 -0.248803 0.903493 
-0.827100 -0.413200 -0.553000 0.569609 -0.356042 0.740797 
-1.075400 -0.865900 0.681000 0.333295 -0.565621 0.754313 
-0.847800 -0.372600 -0.581100 0.112224 0.993535 -0.017175 
-1.054700 -0.847700 0.672100 0.580570 -0.239548 0.778174 
-0.827100 -0.378100 -0.581100 0.424012 0.896301 0.129842 
-1.036000 -0.847700 0.660300 0.511226 -0.216627 0.831698 
-0.817100 -0.392400 -0.560500 0.832878 0.305176 0.461717 
-1.075400 -0.868400 0.678900 0.458204 -0.538306 0.707302 
-1.054700 -0.868400 0.662200 0.548631 -0.430604 0.716648 
-0.819800 -0.413200 -0.560500 0.710196 -0.258517 0.654821 
-1.051800 -0.868400 0.660300 0.492764 -0.493869 0.716434 
-0.809200 -0.392400 -0.581100 0.661250 0.655186 0.365349 
-0.806400 -0.396000 -0.581100 0.745364 0.358353 0.562153 
-0.806400 -0.413200 -0.576800 0.775516 -0.056252 0.628817 
-0.802100 -0.413200 -0.581100 0.640889 -0.031625 0.766982 
-0.869700 -0.847700 0.681000 -0.723002 0.304522 0.620108 
-0.868400 -0.847700 0.682700 -0.675864 0.322843 0.662557 
-0.868400 -0.845600 0.681000 -0.556115 0.620110 0.553354 
0.228200 -0.330300 -1.252000 0.112982 0.436424 0.892619 
-0.875500 -0.868400 0.681000 -0.774025 0.046580 0.631439 
-0.868400 -0.868400 0.689400 -0.648090 0.033026 0.760848 
-0.888800 -0.847700 0.660300 -0.644087 0.536505 0.545266 
-0.868400 -0.829200 0.660300 -0.493096 0.760648 0.422220 
-0.890700 -0.868400 0.660300 -0.844233 -0.043865 0.534179 
-0.889100 -0.868400 0.662400 -0.800706 -0.040829 0.597665 
-0.889100 -0.848600 0.660300 -0.732105 0.088906 0.675365 
0.228200 -0.314500 -1.263900 0.002894 0.500216 0.865896 
0.248900 -0.330300 -1.259300 0.384103 0.186256 0.904308 
0.248900 -0.316600 -1.263900 0.209906 0.296132 0.931797 
0.228200 -0.309600 -1.267400 -0.286657 0.526668 0.800280 
-0.843200 -0.847700 0.701700 -0.405660 0.574701 0.710745 
-0.827100 -0.847700 0.712500 -0.530469 0.569914 0.627536 
-0.827100 -0.835700 0.701700 -0.212906 0.804616 0.554314 
-0.850800 -0.868400 0.701700 -0.522411 -0.024617 0.852338 
-0.847800 -0.868400 0.703300 -0.535162 -0.021325 0.844480 
-0.847800 -0.853700 0.701700 -0.540388 0.223076 0.811306 
0.248900 -0.309600 -1.266000 0.138948 0.310082 0.940501 
-0.827100 -0.868400 0.718700 -0.709036 -0.071521 0.701536 
-0.821100 -0.847700 0.722400 -0.865027 0.385401 0.321239 
-0.819100 -0.847700 0.743100 -0.709991 0.479720 0.515541 
-0.806400 -0.838200 0.722400 -0.256852 0.959259 0.117681 
-0.806400 -0.837500 0.743100 -0.267552 0.776820 0.570058 
-0.785700 -0.837900 0.743100 0.230722 0.894970 0.381833 
-0.785700 -0.838600 0.722400 0.297318 0.954307 0.029991 
-0.825200 -0.868400 0.722400 -0.909392 -0.145543 0.389644 
-0.818000 -0.868400 0.743100 -0.789368 -0.245591 0.562658 
0.083300 -0.702300 -0.726000 -0.052069 0.967532 0.247326 
0.083300 -0.702700 -0.723900 -0.044347 0.975680 0.214667 
0.093300 -0.702700 -0.726000 0.063190 0.955656 0.287625 
-0.806400 -0.832200 0.701700 0.023465 0.956773 0.289887 
-0.785700 -0.836600 0.701700 0.399786 0.913580 0.074453 
0.083300 -0.695600 -0.746700 -0.135374 0.957206 0.255793 
0.104000 -0.696000 -0.746700 0.063380 0.953149 0.295786 
0.104000 -0.702700 -0.728900 0.104781 0.925459 0.364070 
0.124700 -0.702700 -0.735300 0.154809 0.928037 0.338794 
0.124700 -0.698300 -0.746700 0.211436 0.933079 0.290961 
-0.838200 -0.827000 0.681000 -0.203572 0.909766 0.361780 
-0.827100 -0.827000 0.685200 -0.001761 0.932295 0.361695 
-0.827100 -0.825900 0.681000 -0.001275 0.986929 0.161149 
-0.863300 -0.827000 0.660300 -0.308908 0.892321 0.329150 
-0.847800 -0.827000 0.674200 -0.265810 0.914796 0.304126 
-0.847800 -0.823300 0.660300 -0.035871 0.988418 0.147456 
0.083300 -0.691100 -0.767400 -0.141226 0.971467 0.190544 
0.104000 -0.690700 -0.767400 0.014032 0.980751 0.194760 
-0.827100 -0.824500 0.660300 0.090206 0.994242 0.057836 
0.124700 -0.692300 -0.767400 0.175848 0.956405 0.233169 
-0.815700 -0.827000 0.681000 0.116630 0.976191 0.182891 
0.083300 -0.688100 -0.788100 -0.143230 0.952740 0.267902 
0.104000 -0.687200 -0.788100 0.018617 0.961585 0.273876 
0.124700 -0.688800 -0.788100 0.074073 0.914977 0.396648 
-0.815000 -0.827000 0.660300 0.226265 0.973871 -0.019504 
-0.847800 -0.847700 0.699500 -0.481871 0.495392 0.722763 
-0.847800 -0.829600 0.681000 -0.376912 0.758523 0.531583 
0.097700 -0.640700 -0.808700 -0.129632 -0.524124 0.841718 
0.104000 -0.640700 -0.806800 -0.312872 -0.493846 0.811312 
0.104000 -0.620000 -0.794700 -0.113931 -0.319122 0.940841 
0.083300 -0.620000 -0.795900 0.098384 -0.466767 0.878891 
0.083300 -0.638600 -0.808700 0.099319 -0.571250 0.814745 
0.124700 -0.640700 -0.797000 -0.170477 -0.286180 0.942889 
0.124700 -0.620000 -0.795500 0.079526 -0.124319 0.989050 
0.104000 -0.643700 -0.808700 -0.382947 -0.475938 0.791729 
-0.847800 -0.433900 -0.553800 0.402063 -0.481011 0.779085 
0.117800 -0.661400 -0.808700 -0.523177 -0.043647 0.851106 
0.124700 -0.661400 -0.804500 -0.200971 -0.111804 0.973196 
0.083300 -0.640700 -0.810200 0.105525 -0.502274 0.858246 
-0.827100 -0.423900 -0.560500 0.579860 -0.478333 0.659515 
-0.837000 -0.433900 -0.560500 0.504468 -0.483085 0.715640 
0.083300 -0.661400 -0.819900 0.151874 0.033377 0.987836 
0.104000 -0.661400 -0.820800 -0.332093 -0.118467 0.935778 
-0.847800 -0.446200 -0.560500 0.460707 -0.417810 0.783061 
-0.856600 -0.454600 -0.560500 0.382902 -0.344138 0.857295 
0.083300 -0.681800 -0.808700 0.082370 0.654247 0.751782 
0.083300 -0.682100 -0.808300 -0.012180 0.897289 0.441275 
0.104000 -0.679300 -0.808700 -0.178941 0.667373 0.722907 
0.104000 -0.682100 -0.802500 -0.058642 0.933035 0.354975 
-0.827100 -0.433900 -0.568400 0.570648 -0.445173 0.690060 
-0.806400 -0.828900 0.681000 0.255602 0.965002 0.058642 
-0.847800 -0.454600 -0.564500 0.492949 -0.307144 0.814042 
0.124700 -0.682100 -0.800900 -0.140040 0.628609 0.765009 
-0.785700 -0.835900 0.681000 0.414179 0.909948 0.021209 
-0.827100 -0.454600 -0.579500 0.570082 -0.310350 0.760717 
-0.806400 -0.425400 -0.581100 0.602846 -0.347890 0.718018 
-0.812800 -0.433900 -0.581100 0.577097 -0.366011 0.730065 
0.139600 -0.702700 -0.746700 0.292415 0.922503 0.251957 
-0.825100 -0.454600 -0.581100 0.579504 -0.288600 0.762158 
0.259800 -0.682100 -0.684600 -0.319150 0.934674 -0.156613 
0.248900 -0.682100 -0.666200 -0.286918 0.936871 -0.199876 
0.269600 -0.676300 -0.663900 -0.145798 0.970413 -0.192461 
0.269600 -0.679500 -0.684600 -0.088031 0.988967 -0.119139 
0.248900 -0.681600 -0.663900 -0.283959 0.933993 -0.216849 
0.290200 -0.677600 -0.663900 0.159390 0.958206 -0.237563 
0.290200 -0.680500 -0.684600 0.211224 0.969085 -0.127510 
-0.847800 -0.475100 -0.571500 0.456887 -0.211463 0.864024 
0.248900 -0.686500 -0.684600 -0.323037 0.924568 -0.202044 
0.267300 -0.682100 -0.705300 -0.334628 0.909565 -0.246404 
0.269600 -0.681300 -0.705300 -0.098204 0.974580 -0.201370 
-0.827100 -0.460900 -0.581100 0.539743 -0.165681 0.825365 
-0.831000 -0.475100 -0.581100 0.489563 -0.141586 0.860396 
-0.847800 -0.495800 -0.575900 0.443585 -0.127219 0.887157 
0.290200 -0.682100 -0.697600 0.275332 0.954561 -0.114039 
0.287800 -0.682100 -0.705300 0.179915 0.944852 -0.273654 
-0.837600 -0.495800 -0.581100 0.454841 -0.102740 0.884627 
0.248900 -0.690600 -0.705300 -0.337333 0.913791 -0.226257 
0.290200 -0.683400 -0.705300 0.426074 0.879150 -0.213440 
0.227300 -0.702700 -0.726000 -0.253830 0.953350 -0.163385 
0.210600 -0.702700 -0.705300 -0.254326 0.936738 -0.240501 
0.228200 -0.697900 -0.705300 -0.279877 0.934146 -0.221452 
0.228200 -0.702500 -0.726000 -0.262278 0.954859 -0.139481 
0.248900 -0.695700 -0.726000 -0.277272 0.942489 -0.186639 
-0.847800 -0.375800 -0.601800 0.023894 0.987504 -0.155772 
0.228200 -0.702700 -0.728800 -0.280791 0.953901 -0.105966 
-0.827100 -0.377700 -0.601800 0.114205 0.991208 0.066816 
-0.847800 -0.382100 -0.622500 -0.320833 0.895632 -0.308075 
0.237100 -0.702700 -0.746700 -0.224176 0.947662 -0.227337 
0.248900 -0.700400 -0.746700 -0.234851 0.943293 -0.234613 
-0.827100 -0.377400 -0.622500 -0.087105 0.996051 -0.017204 
0.269600 -0.682100 -0.707100 -0.131547 0.908535 -0.396559 
-0.806400 -0.382300 -0.601800 0.321819 0.863709 0.387864 
-0.806400 -0.392400 -0.584900 0.596017 0.611394 0.520540 
0.269600 -0.690200 -0.726000 -0.160496 0.946618 -0.279561 
0.290200 -0.690000 -0.726000 0.207238 0.956708 -0.204357 
-0.806400 -0.829100 0.660300 0.298660 0.953754 -0.034002 
0.269600 -0.694100 -0.746700 -0.228211 0.948986 -0.217590 
0.290200 -0.692100 -0.746700 -0.000184 0.997221 -0.074504 
-0.785700 -0.836800 0.660300 0.538489 0.839128 -0.076771 
0.145400 -0.558000 -0.798800 0.063002 0.109706 0.991965 
0.145400 -0.537300 -0.800700 0.054769 0.071719 0.995920 
0.124700 -0.537300 -0.798600 0.125400 0.099278 0.987126 
0.124700 -0.558000 -0.796500 0.164175 0.133340 0.977378 
-1.323600 -0.869800 0.970700 0.265757 0.952772 -0.146965 
0.166100 -0.558000 -0.799300 -0.000757 0.112172 0.993688 
0.166100 -0.537300 -0.801200 0.024067 0.087580 0.995867 
-1.344300 -0.868400 0.950000 0.154590 0.978761 -0.134647 
0.145400 -0.578600 -0.796300 0.092355 0.090997 0.991559 
0.124700 -0.578600 -0.792800 0.156814 0.074382 0.984823 
0.166100 -0.578600 -0.796500 -0.041264 0.094283 0.994690 
-1.323600 -0.875100 0.950000 0.428648 0.844281 -0.321636 
0.186800 -0.558000 -0.798500 -0.046439 0.171952 0.984010 
0.186800 -0.537300 -0.801200 0.009573 0.122887 0.992375 
0.207500 -0.558000 -0.797000 -0.118075 0.260969 0.958099 
0.207500 -0.537300 -0.802100 -0.011445 0.193456 0.981042 
-1.303000 -0.878000 0.970700 0.432689 0.822736 -0.368626 
0.186800 -0.578600 -0.794300 -0.134401 0.162109 0.977577 
0.207500 -0.578600 -0.790100 -0.208496 0.176807 0.961909 
-0.785700 -0.392400 -0.601500 0.479308 0.563749 0.672645 
-0.785700 -0.392100 -0.601800 0.426718 0.704228 0.567428 
-0.785700 -0.413200 -0.592500 0.572085 0.102710 0.813738 
0.145400 -0.599300 -0.795900 0.080107 -0.036248 0.996127 
0.124700 -0.599300 -0.791500 0.086735 -0.063882 0.994181 
-0.806400 -0.376500 -0.622500 0.065810 0.988986 0.132571 
0.166100 -0.599300 -0.795500 -0.058612 -0.045022 0.997265 
-0.785700 -0.378900 -0.622500 0.259707 0.895400 0.361678 
-1.282300 -0.889100 0.974700 0.525205 0.717681 -0.457267 
-1.285900 -0.889100 0.970700 0.503974 0.734239 -0.454865 
-0.806400 -0.433900 -0.586000 0.501609 -0.353670 0.789497 
0.145400 -0.620000 -0.797600 0.048702 -0.088911 0.994848 
-0.785700 -0.433900 -0.597500 0.459768 -0.298498 0.836369 
0.166100 -0.620000 -0.797300 -0.035233 -0.089739 0.995342 
-0.806400 -0.454600 -0.593600 0.506884 -0.193651 0.839981 
0.186800 -0.599300 -0.793300 -0.130377 -0.061315 0.989567 
0.207500 -0.599300 -0.789200 -0.211439 -0.137876 0.967618 
-0.785700 -0.445500 -0.601800 0.428963 -0.284667 0.857296 
-0.791000 -0.454600 -0.601800 0.449632 -0.156670 0.879366 
0.186800 -0.620000 -0.796400 -0.042116 -0.105415 0.993536 
-0.785700 -0.454600 -0.604400 0.426866 -0.132463 0.894561 
0.207500 -0.620000 -0.796200 0.025534 -0.380437 0.924454 
-0.853200 -0.392400 -0.643200 -0.468607 0.821696 -0.324381 
-0.847800 -0.389100 -0.643200 -0.512164 0.811070 -0.282582 
0.214800 -0.578600 -0.788100 -0.334955 0.324662 0.884533 
0.228200 -0.578600 -0.781000 -0.506561 0.578203 0.639592 
0.228200 -0.570300 -0.788100 -0.138384 0.543122 0.828172 
-0.827100 -0.375600 -0.643200 -0.273100 0.945309 -0.178346 
-1.282300 -0.891600 0.970700 0.548024 0.696452 -0.463276 
-0.847800 -0.392400 -0.652400 -0.484562 0.827510 -0.283598 
-0.841200 -0.392400 -0.663900 -0.430583 0.844717 -0.317884 
-0.827100 -0.384600 -0.663900 -0.331090 0.844104 -0.421743 
-0.847800 -0.396300 -0.663900 -0.464955 0.849776 -0.248389 
0.248900 -0.578600 -0.782600 0.236747 0.416896 0.877581 
0.248900 -0.568400 -0.788100 0.006503 0.463857 0.885886 
-0.806400 -0.374000 -0.643200 0.054197 0.991575 -0.117648 
0.269600 -0.572100 -0.788100 0.097241 0.380126 0.919809 
0.269600 -0.578600 -0.785700 0.147223 0.152133 0.977334 
-0.785700 -0.377900 -0.643200 0.069218 0.992572 -0.100049 
0.287200 -0.578600 -0.788100 0.141528 0.160043 0.976911 
-0.806400 -0.381700 -0.663900 -0.024626 0.906018 -0.422522 
0.225400 -0.599300 -0.767400 -0.766244 -0.398517 0.504037 
0.228200 -0.599300 -0.765100 -0.218146 -0.476691 0.851574 
0.228200 -0.582600 -0.767400 -0.251977 0.492349 0.833127 
-0.785700 -0.383000 -0.663900 -0.075398 0.927908 -0.365105 
0.238700 -0.599300 -0.767400 0.451234 -0.493888 0.743278 
-0.785300 -0.392400 -0.601800 0.487942 0.550128 0.677697 
0.228200 -0.600500 -0.767400 -0.134523 -0.907895 0.397026 
-0.769000 -0.413200 -0.601800 0.473358 0.117633 0.872980 
-0.765000 -0.392400 -0.614600 0.329252 0.556215 0.763032 
-0.765000 -0.385300 -0.622500 0.192642 0.841266 0.505134 
0.212100 -0.599300 -0.788100 -0.421762 -0.150849 0.894070 
-0.744300 -0.392400 -0.619700 0.446972 0.509538 0.735247 
-0.744300 -0.389800 -0.622500 0.540291 0.644373 0.541175 
-0.765000 -0.413200 -0.603900 0.434869 0.142709 0.889114 
-1.303000 -0.889100 0.951200 0.522644 0.733505 -0.434527 
-1.304000 -0.889100 0.950000 0.517280 0.731561 -0.444116 
-0.744300 -0.413200 -0.613300 0.474811 0.064248 0.877740 
0.248900 -0.599300 -0.781200 0.287728 -0.449735 0.845548 
-0.776700 -0.433900 -0.601800 0.420890 -0.240214 0.874728 
0.228200 -0.607900 -0.788100 -0.093829 -0.764970 0.637194 
-0.765000 -0.433900 -0.607300 0.433512 -0.200178 0.878633 
0.248900 -0.609300 -0.788100 0.009665 -0.562816 0.826526 
-0.744300 -0.433900 -0.618100 0.492516 -0.222658 0.841339 
0.269600 -0.599300 -0.785000 0.171311 -0.123329 0.977467 
-0.765000 -0.454600 -0.613900 0.424626 -0.191806 0.884818 
0.286800 -0.599300 -0.788100 0.180226 -0.207529 0.961483 
0.269600 -0.607000 -0.788100 0.129926 -0.464289 0.876102 
-0.744300 -0.450200 -0.622500 0.488291 -0.217961 0.845024 
-0.746500 -0.454600 -0.622500 0.450951 -0.179066 0.874402 
-1.303000 -0.889800 0.950000 0.529735 0.712229 -0.460554 
0.269600 -0.558000 -0.794300 0.033451 0.384575 0.922488 
0.269600 -0.537300 -0.801500 0.001812 0.297170 0.954823 
0.248900 -0.537300 -0.802000 0.004673 0.286937 0.957938 
0.248900 -0.558000 -0.793600 -0.011046 0.422263 0.906406 
-0.765000 -0.378600 -0.643200 0.083632 0.991253 0.102097 
0.290200 -0.558000 -0.795300 0.066818 0.312080 0.947703 
0.290200 -0.537300 -0.801600 0.021850 0.281298 0.959372 
-0.744300 -0.381000 -0.643200 0.280883 0.925003 0.255878 
-0.765000 -0.380300 -0.663900 -0.117967 0.976419 -0.180805 
-1.282300 -0.905400 0.950000 0.542273 0.690563 -0.478605 
-0.744300 -0.378600 -0.663900 0.053452 0.993446 0.101036 
0.290200 -0.578600 -0.788500 0.124602 0.150469 0.980731 
-0.744300 -0.454600 -0.623700 0.481587 -0.178573 0.858013 
-1.363100 -0.930400 0.970700 -0.889480 -0.422594 0.173895 
-0.827100 -0.475100 -0.583400 0.498557 -0.135519 0.856198 
-1.354600 -0.951100 0.970700 -0.946477 -0.284530 0.152394 
-0.827100 -0.495800 -0.586600 0.471706 -0.087702 0.877384 
-0.806400 -0.475100 -0.595300 0.474980 -0.097876 0.874537 
-0.793500 -0.475100 -0.601800 0.446916 -0.072868 0.891603 
-0.806400 -0.495800 -0.597400 0.454115 -0.059006 0.888987 
-1.355200 -0.951100 0.950000 -0.927144 -0.357340 0.112746 
-0.797600 -0.495800 -0.601800 0.447998 -0.065667 0.891620 
-0.785700 -0.475100 -0.605600 0.436897 -0.077320 0.896183 
-1.344300 -0.874200 0.929300 0.452077 0.838154 -0.305162 
-0.785700 -0.495800 -0.607800 0.451324 -0.066369 0.889888 
-1.323600 -0.887900 0.929300 0.548209 0.697533 -0.461426 
-0.765000 -0.475100 -0.616000 0.461700 -0.097254 0.881689 
-1.344300 -0.882300 0.908600 0.735533 0.675496 0.051929 
-0.753200 -0.475100 -0.622500 0.469884 -0.108630 0.876019 
-0.765000 -0.495800 -0.618500 0.458889 -0.072207 0.885554 
-1.337100 -0.889100 0.908600 0.631343 0.757181 -0.167580 
-1.323600 -0.889100 0.927600 0.554778 0.710740 -0.432517 
-0.757300 -0.495800 -0.622500 0.460750 -0.059415 0.885539 
-1.323600 -0.900000 0.908600 0.682344 0.637715 -0.357389 
-0.744300 -0.475100 -0.627500 0.473461 -0.128410 0.871404 
-1.322300 -0.889100 0.929300 0.562461 0.692024 -0.452483 
-0.744300 -0.495800 -0.629400 0.475650 -0.064600 0.877259 
-1.303000 -0.904900 0.929300 0.555956 0.676719 -0.482664 
-1.282300 -0.909700 0.944500 0.565430 0.635605 -0.525638 
-1.296900 -0.909700 0.929300 0.554372 0.637913 -0.534545 
-0.413200 -0.732300 -0.022500 -0.019953 0.996830 0.077023 
-0.413200 -0.734300 -0.001800 0.002007 0.992288 0.123940 
-0.392600 -0.732700 -0.022500 0.023518 0.990279 0.137089 
-0.392600 -0.735300 -0.001800 0.066813 0.989397 0.128958 
-0.371900 -0.734800 -0.022500 0.207982 0.936630 0.281901 
-0.371900 -0.737800 -0.001800 0.227169 0.970128 0.085119 
-0.413200 -0.731100 -0.043200 -0.039019 0.997984 0.050052 
-0.392600 -0.729900 -0.043200 -0.076845 0.992344 0.096687 
-1.303000 -0.909700 0.923000 0.597912 0.612608 -0.516927 
-1.314900 -0.909700 0.908600 0.650287 0.558650 -0.514818 
-0.371900 -0.728600 -0.043200 -0.065052 0.975493 0.210193 
-0.413200 -0.730800 -0.063900 -0.101055 0.994880 0.001511 
-0.392600 -0.727800 -0.063900 -0.140161 0.988742 0.052383 
-1.360300 -0.951100 0.929300 -0.852497 -0.441824 0.279358 
-0.371900 -0.724800 -0.063900 -0.171383 0.981344 0.087135 
-0.413200 -0.731600 -0.084600 -0.105642 0.994096 0.024773 
-0.392600 -0.728700 -0.084600 -0.165906 0.985463 0.036582 
0.228200 -0.620000 -0.795700 -0.003380 -0.612261 0.790649 
-0.371900 -0.724400 -0.084600 -0.197902 0.979236 0.043956 
0.248900 -0.620000 -0.796000 0.005580 -0.637884 0.770112 
0.290200 -0.599300 -0.788800 0.166348 -0.167873 0.971672 
-1.282300 -0.923300 0.929300 0.591561 0.583501 -0.556400 
0.269600 -0.620000 -0.796000 0.034482 -0.559024 0.828434 
0.290200 -0.620000 -0.799100 0.175523 -0.487118 0.855516 
-1.303000 -0.922600 0.908600 0.598121 0.568191 -0.565164 
0.145400 -0.702700 -0.754800 0.285373 0.928419 0.237910 
0.145400 -0.699300 -0.767400 0.312361 0.907156 0.281955 
0.155100 -0.702700 -0.767400 0.313534 0.918023 0.242757 
-1.282300 -0.930400 0.922300 0.601329 0.551291 -0.578344 
-1.295700 -0.930400 0.908600 0.591091 0.542329 -0.597068 
0.145400 -0.692000 -0.788100 0.233868 0.853233 0.466154 
-1.282300 -0.945300 0.908600 0.606562 0.516671 -0.604263 
0.166100 -0.702700 -0.779800 0.308006 0.891312 0.332710 
0.166100 -0.698800 -0.788100 0.282430 0.756220 0.590225 
-1.261600 -0.908600 0.970700 0.569580 0.675096 -0.468854 
0.175400 -0.702700 -0.788100 0.355864 0.796131 0.489424 
0.145400 -0.640700 -0.799600 0.034097 -0.193327 0.980542 
0.166100 -0.640700 -0.799500 -0.035262 -0.144771 0.988837 
0.145400 -0.661400 -0.804000 -0.001895 0.057107 0.998366 
-0.227000 -0.659100 -0.001800 -0.084946 0.990050 0.112180 
-0.227000 -0.661400 -0.011600 -0.276751 0.924715 -0.261363 
-0.233600 -0.661400 -0.001800 -0.537444 0.831001 0.143496 
-0.212200 -0.661400 -0.001800 0.398386 0.871714 0.285313 
0.166100 -0.661400 -0.803900 0.090000 -0.182113 0.979150 
0.186800 -0.640700 -0.797900 0.156622 -0.282067 0.946524 
0.207500 -0.640700 -0.806400 0.340584 -0.456657 0.821868 
0.186800 -0.661400 -0.806400 0.246529 -0.458347 0.853898 
0.207500 -0.644400 -0.808700 0.372856 -0.459184 0.806305 
0.191700 -0.661400 -0.808700 0.398926 -0.303408 0.865333 
0.207500 -0.661400 -0.818900 0.461194 -0.361192 0.810457 
0.145400 -0.682100 -0.798800 0.045338 0.602669 0.796702 
0.166100 -0.682100 -0.801900 0.255139 0.448418 0.856636 
-0.249800 -0.682100 -0.022500 -0.854503 0.463803 -0.233906 
-0.253700 -0.682100 -0.001800 -0.856610 0.515536 -0.021012 
-0.247700 -0.679100 -0.022500 -0.685514 0.686855 -0.241457 
-0.247700 -0.673900 -0.001800 -0.646262 0.754856 0.111972 
0.186800 -0.664800 -0.808700 0.244701 -0.265277 0.932604 
0.183900 -0.682100 -0.808700 0.359607 0.098244 0.927918 
-0.258100 -0.702700 -0.022500 -0.925826 0.256319 -0.277752 
-0.263500 -0.702700 -0.001800 -0.960069 0.219562 -0.173378 
-0.247700 -0.682100 -0.028300 -0.744862 0.590014 -0.311551 
-0.250700 -0.702700 -0.043200 -0.919936 0.066875 -0.386324 
-0.247700 -0.693400 -0.043200 -0.844698 0.364881 -0.391596 
-0.227000 -0.664800 -0.022500 -0.317284 0.909314 -0.269219 
0.186800 -0.686500 -0.808700 0.421798 0.407477 0.809969 
0.186800 -0.702700 -0.795400 0.369325 0.695192 0.616690 
-0.206300 -0.664600 -0.022500 0.379565 0.923953 0.047343 
-0.206300 -0.666300 -0.001800 0.617236 0.666911 0.417433 
0.206200 -0.702700 -0.808700 0.473756 0.621254 0.624178 
-0.241000 -0.682100 -0.043200 -0.694354 0.577290 -0.429661 
-0.227000 -0.670500 -0.043200 -0.391351 0.834069 -0.388811 
0.186800 -0.682100 -0.810100 0.392656 0.043658 0.918648 
-0.206300 -0.667400 -0.043200 0.009654 0.960737 -0.277294 
0.207500 -0.682100 -0.822300 0.545700 0.176076 0.819274 
-0.247700 -0.702700 -0.049500 -0.888868 0.107997 -0.445253 
-0.227000 -0.682100 -0.061000 -0.560816 0.638738 -0.526782 
0.207500 -0.702700 -0.809700 0.469671 0.601755 0.645988 
-0.222800 -0.682100 -0.063900 -0.329940 0.706581 -0.626006 
-0.206300 -0.677000 -0.063900 -0.066814 0.874643 -0.480141 
-1.260400 -0.909700 0.970700 0.608745 0.625274 -0.488326 
-0.239600 -0.702700 -0.063900 -0.768011 0.334409 -0.546196 
-0.227000 -0.684800 -0.063900 -0.552040 0.560211 -0.617588 
-0.206300 -0.682100 -0.070800 -0.165870 0.727053 -0.666244 
0.248900 -0.702700 -0.755200 -0.250979 0.922828 -0.292228 
-0.227000 -0.702700 -0.077700 -0.575994 0.439549 -0.689223 
0.260800 -0.702700 -0.767400 -0.315334 0.907164 -0.278601 
0.269600 -0.699900 -0.767400 -0.267619 0.930837 -0.248843 
-0.216600 -0.702700 -0.084600 -0.417475 0.526792 -0.740409 
-0.206300 -0.696400 -0.084600 -0.205277 0.637267 -0.742800 
-0.206300 -0.702700 -0.089400 -0.257871 0.598643 -0.758372 
-0.192700 -0.682100 -0.001800 0.678723 0.590275 0.436934 
-0.185600 -0.682100 -0.013700 0.642915 0.649905 0.405320 
-0.185600 -0.677600 -0.022500 0.603429 0.737685 0.302811 
-0.181300 -0.682100 -0.022500 0.672136 0.664907 0.325778 
-0.185600 -0.692100 -0.001800 0.676184 0.553149 0.486623 
-0.165000 -0.702700 -0.016700 0.577890 0.689285 0.436954 
-0.165000 -0.699200 -0.022500 0.611352 0.689105 0.389078 
-0.177000 -0.702700 -0.001800 0.648807 0.608151 0.457386 
-0.185600 -0.671100 -0.043200 0.418914 0.905070 -0.073203 
-0.170400 -0.682100 -0.043200 0.657042 0.751837 0.055111 
-0.165000 -0.688300 -0.043200 0.684434 0.694901 0.220596 
-0.160300 -0.702700 -0.022500 0.527612 0.773439 0.351309 
-0.149600 -0.702700 -0.043200 0.600911 0.790947 0.115361 
-0.185600 -0.677900 -0.063900 0.174083 0.857697 -0.483789 
-0.176300 -0.682100 -0.063900 0.468351 0.781018 -0.413109 
-0.165000 -0.690400 -0.063900 0.535048 0.799371 -0.273366 
-0.185600 -0.682100 -0.069500 0.199526 0.761430 -0.616777 
0.290200 -0.694600 -0.767400 -0.197956 0.970833 -0.135267 
-0.185600 -0.695300 -0.084600 0.164168 0.758290 -0.630908 
0.269600 -0.702700 -0.778400 -0.364046 0.906596 -0.213436 
-0.165000 -0.701800 -0.084600 0.095456 0.934016 -0.344241 
0.274200 -0.702700 -0.788100 -0.484767 0.858149 -0.169062 
0.290200 -0.695300 -0.788100 -0.360008 0.932110 -0.039563 
-0.149400 -0.702700 -0.063900 0.512620 0.858429 -0.017933 
-0.156900 -0.702700 -0.084600 0.170186 0.979948 -0.103624 
-1.277400 -0.909700 0.950000 0.584593 0.647089 -0.489415 
0.228200 -0.634700 -0.808700 0.099031 -0.631045 0.769399 
0.213000 -0.640700 -0.808700 0.293977 -0.503728 0.812302 
0.248900 -0.633700 -0.808700 -0.051391 -0.677410 0.733808 
-1.261600 -0.909700 0.969200 0.602336 0.632681 -0.486729 
0.228200 -0.640700 -0.814200 0.224339 -0.639782 0.735085 
0.248900 -0.640700 -0.816200 -0.059731 -0.755674 0.652219 
-1.241800 -0.930400 0.970700 0.669607 0.528945 -0.521386 
-1.240900 -0.930400 0.971800 0.608280 0.532544 -0.588551 
0.228200 -0.659500 -0.829400 0.314456 -0.599706 0.735847 
0.225700 -0.661400 -0.829400 0.480415 -0.430472 0.764131 
-0.132400 -0.702700 -0.084600 -0.032781 0.957936 0.285104 
-0.123600 -0.702700 -0.083100 0.049872 0.866259 0.497100 
-0.123600 -0.702000 -0.084600 0.044331 0.942111 0.332358 
-0.119600 -0.702700 -0.084600 0.272187 0.890792 0.363872 
-0.185600 -0.702700 -0.093400 -0.001647 0.774240 -0.632890 
0.248900 -0.652500 -0.829400 0.080684 -0.706032 0.703569 
-0.165000 -0.702700 -0.086700 -0.025421 0.915700 -0.401057 
0.269600 -0.639500 -0.808700 -0.022082 -0.628992 0.777099 
0.290200 -0.636600 -0.808700 0.184126 -0.558700 0.808673 
-0.146800 -0.702700 -0.105300 -0.318480 0.917601 -0.237862 
-0.153700 -0.702500 -0.095100 -0.010797 0.999733 -0.020426 
-0.144300 -0.702700 -0.103900 0.011275 0.974237 0.225243 
-0.144300 -0.701800 -0.105300 -0.139733 0.986866 0.081056 
0.269600 -0.640700 -0.809900 -0.088515 -0.759527 0.644426 
0.290200 -0.640700 -0.812000 0.123657 -0.735958 0.665639 
-0.123600 -0.696900 -0.105300 -0.006251 0.998876 0.046985 
0.269600 -0.654000 -0.829400 -0.008047 -0.810793 0.585278 
-0.144300 -0.702700 -0.109400 -0.132178 0.880739 -0.454784 
0.290200 -0.653200 -0.829400 0.022230 -0.806762 0.590458 
-0.123600 -0.702700 -0.118100 0.129534 0.771570 -0.622817 
0.216500 -0.682100 -0.829400 0.672361 0.153870 0.724054 
-0.109200 -0.702700 -0.105300 0.558704 0.812512 -0.166358 
0.228200 -0.702700 -0.829100 0.537313 0.717984 0.442486 
0.228200 -0.702500 -0.829400 0.586516 0.526237 0.615689 
0.228500 -0.702700 -0.829400 0.385721 0.725184 0.570375 
0.279300 -0.702700 -0.808700 -0.492513 0.865082 -0.095206 
0.290200 -0.696500 -0.808700 -0.526110 0.849350 -0.042587 
-0.358300 -0.744100 -0.001800 0.494554 0.867730 0.049604 
-0.351200 -0.744100 -0.019000 0.554570 0.687102 0.469407 
-0.351200 -0.741800 -0.022500 0.276643 0.799569 0.533065 
0.285500 -0.702700 -0.829400 -0.386200 0.897312 0.213730 
0.290200 -0.700400 -0.829400 -0.522582 0.842491 0.130836 
-0.344700 -0.744100 -0.022500 0.344654 0.553586 0.758127 
-0.351200 -0.727800 -0.043200 0.054758 0.880353 0.471148 
0.083300 -0.707800 -0.705300 0.017310 0.984431 0.174918 
0.104000 -0.708800 -0.705300 0.060913 0.986436 0.152427 
0.104000 -0.703900 -0.726000 0.107891 0.946042 0.305556 
-0.330500 -0.744100 -0.027500 0.496794 0.263435 0.826921 
-0.330500 -0.725800 -0.043200 0.306656 0.779365 0.546399 
-1.240900 -0.932000 0.970700 0.753433 0.285871 -0.592129 
0.124700 -0.706300 -0.726000 0.108594 0.956684 0.270117 
0.124700 -0.709300 -0.705300 0.017714 0.999842 0.001328 
-0.312800 -0.744100 -0.043200 0.824840 0.070488 0.560955 
-1.261600 -0.925100 0.950000 0.621178 0.588208 -0.517830 
-0.351200 -0.750800 -0.001800 0.812130 0.581353 0.049742 
-1.257000 -0.930400 0.950000 0.714136 0.420900 -0.559333 
-0.341500 -0.764800 -0.022500 0.918341 -0.092957 0.384719 
