x,y,z,nx,ny,nz,label
-0.6802,-0.5786,-0.6639,0.45592299999999997,-0.012267,0.889934,0
-0.6819,-0.62,-0.6639,0.467901,-0.026006,0.8833979999999999,0
1.9665,-0.0407,0.5775,-0.860867,-0.065977,0.504534,1
1.9869,-0.0407,0.6125,-0.8679819999999999,-0.053413999999999996,0.49371499999999996,1
-0.6849,-0.6614,-0.6639,0.490163,-0.047252999999999996,0.8703489999999999,0
-0.6897,-0.7027,-0.6639,0.526709,0.091187,0.845141,0
-0.5438,-0.6614,-0.6225,-0.475753,0.8723290000000001,0.11269900000000001,0
-0.5374,-0.6614,-0.6033,-0.6833899999999999,0.675009,0.278102,4
-0.5374,-0.6581,-0.6225,-0.6287659999999999,0.7740020000000001,0.074667,4
-0.5862,-0.7027,-0.6225,-0.8084680000000001,0.45801400000000003,0.36959899999999996,4
-0.5788,-0.7027,-0.6101,-0.735746,0.334946,0.588633,4
-0.5788,-0.687,-0.6225,-0.7138770000000001,0.586179,0.38311100000000003,4
-0.5472,-0.6614,-0.6639,-0.352039,0.908776,0.224041,0
-0.5374,-0.6572,-0.6639,-0.6116090000000001,0.785086,0.097854,4
1.9929,-0.082,0.6189,-0.8737950000000001,-0.061596000000000005,0.482378,1
-0.6067,-0.7027,-0.6639,-0.741649,0.405432,0.534399,4
-0.5788,-0.6741,-0.6639,-0.51037,0.768205,0.386502,0
1.9966,-0.1235,0.6189,-0.873992,-0.074152,0.480249,1
1.9701,-0.082,0.5775,-0.8606,-0.075278,0.503686,1
1.9869,-0.082,0.6076,-0.875036,-0.072693,0.47856800000000005,1
-0.493,-0.5786,-0.5811,-0.9009659999999999,0.03732,0.43228199999999994,4
-0.4546,-0.5786,-0.5514,-0.140683,0.10155299999999999,0.984833,0
-0.4983,-0.62,-0.5811,-0.885549,0.384841,0.26019200000000003,4
-0.496,-0.62,-0.5753,-0.691095,0.463049,0.554954,4
-0.496,-0.6091,-0.5811,-0.8588370000000001,0.19009,0.475674,4
1.9743,-0.1235,0.5775,-0.8543780000000001,-0.052863,0.516957,1
1.9869,-0.1235,0.6003,-0.8765790000000001,-0.06771,0.476471,1
-0.4546,-0.62,-0.5427,-0.251287,0.5035430000000001,0.8266190000000001,0
-0.4132,-0.5786,-0.5723,0.5468529999999999,0.16636700000000001,0.820533,0
-0.4029,-0.5786,-0.5811,0.634099,0.153575,0.757847,0
1.9994,-0.1648,0.6189,-0.868886,-0.052426,0.492228,1
-0.4132,-0.62,-0.5532,0.358387,0.617861,0.699862,0
2.0013,-0.2062,0.6189,-0.87024,-0.052463,0.48982600000000004,1
-0.3793,-0.62,-0.5811,0.46178800000000003,0.688669,0.559005,0
0.3316,1.3758,0.081,-0.744796,-0.48259399999999997,0.46085,2
-0.4992,-0.6614,-0.5398,-0.702975,0.48449899999999996,0.52066,4
-0.496,-0.6614,-0.5357,-0.6543770000000001,0.52728,0.542003,4
-0.496,-0.6579,-0.5398,-0.6122270000000001,0.585029,0.5319,4
-0.4546,-0.624,-0.5398,-0.36035500000000004,0.71758,0.596006,0
-0.5059,-0.689,-0.5288,-0.730355,0.384757,0.564397,4
0.3384,1.3663,0.081,-0.686611,-0.592907,0.420745,2
1.976,-0.1648,0.5775,-0.853676,-0.052604,0.518141,1
1.9869,-0.1648,0.5964,-0.871893,-0.044316,0.487687,1
-0.5272,-0.6614,-0.5811,-0.719337,0.545151,0.430541,4
1.9788,-0.2062,0.5775,-0.8608969999999999,-0.08429199999999999,0.501747,1
1.9869,-0.2062,0.5922,-0.8751479999999999,-0.07122300000000001,0.47858599999999996,1
1.9457,-0.082,0.5362,-0.876698,-0.05884299999999999,0.477429,1
1.9475,-0.1235,0.5362,-0.8487239999999999,-0.039655,0.527347,1
-0.4132,-0.6277,-0.5398,0.048632,0.9110010000000001,0.409526,0
-0.3719,-0.6319,-0.5398,0.09139299999999999,0.975756,0.19886500000000001,0
1.9489,-0.1648,0.5362,-0.831992,-0.04942,0.552581,1
-0.3719,-0.6226,-0.5811,0.113631,0.948708,0.295028,0
1.9528,-0.2062,0.5362,-0.839376,-0.081039,0.5374760000000001,1
-0.4981,-0.5786,-0.6225,-0.9883360000000001,0.06683,0.13684200000000002,4
-0.496,-0.5786,-0.605,-0.986661,0.059988,0.151335,4
-0.5064,-0.62,-0.6225,-0.902756,0.40825,0.135509,4
-0.5046,-0.5786,-0.6639,-0.976146,-0.001887,0.217106,4
0.373,1.3567,0.1223,-0.6578430000000001,-0.623868,0.421939,2
-0.5076,-0.62,-0.6639,-0.9196639999999999,0.342061,0.192902,4
1.9496,-0.2062,0.3706,-0.9959969999999999,-0.083998,0.030558,4
0.373,1.3309,0.081,-0.6235310000000001,-0.6835680000000001,0.3794,2
-0.3719,-0.5786,-0.6073,0.493399,0.256666,0.8310709999999999,0
-0.3719,-0.62,-0.5862,0.198267,0.7581399999999999,0.621219,0
0.4044,1.3249,0.1223,-0.624854,-0.700712,0.344325,2
0.4144,1.3249,0.1401,-0.633475,-0.672481,0.382725,2
2.0052,-0.2476,0.6189,-0.875531,-0.083774,0.475843,1
0.4144,1.3163,0.1223,-0.574256,-0.75812,0.30900500000000003,2
2.0098,-0.2889,0.6189,-0.876757,-0.06278099999999999,0.47681899999999994,1
2.0283,-0.2889,0.6542,-0.8921100000000001,-0.057313,0.448169,1
0.4558,1.287,0.1223,-0.5140979999999999,-0.8091550000000001,0.284556,2
0.3804,1.3249,0.081,-0.589106,-0.719101,0.368576,2
1.9836,-0.2476,0.5775,-0.871088,-0.07483,0.485393,1
1.9869,-0.2476,0.584,-0.880338,-0.085957,0.46649399999999996,1
0.4144,1.2996,0.081,-0.531432,-0.790038,0.30564600000000003,2
1.9865,-0.2889,0.5775,-0.881443,-0.044704,0.47017,1
1.9869,-0.2889,0.5784,-0.8917299999999999,-0.051059,0.44967799999999997,1
0.4407,1.2836,0.081,-0.462132,-0.851957,0.246177,2
0.4558,1.2836,0.1099,-0.467483,-0.8509180000000001,0.23958200000000002,2
-0.7028,-0.7441,-0.6225,0.24399099999999999,0.9212549999999999,0.30291599999999996,0
-0.6857,-0.7478,-0.6018,0.159299,0.9871110000000001,-0.015368999999999999,0
-0.6615,-0.7555,-0.6225,0.08884199999999999,0.9930700000000001,0.076942,0
2.0117,-0.3303,0.6189,-0.870033,-0.029891,0.492087,1
2.0283,-0.3303,0.6499,-0.8910530000000001,-0.040529,0.452085,1
0.3132,1.3663,0.0396,-0.726197,-0.552774,0.408754,2
0.3316,1.3663,0.0704,-0.7066060000000001,-0.558479,0.43452299999999994,2
2.0132,-0.3717,0.6189,-0.867663,-0.024356,0.49655600000000005,1
2.0283,-0.3717,0.6466,-0.886764,-0.024868,0.461552,1
1.9869,-0.3017,0.5775,-0.865358,-0.02685,0.500434,1
0.3316,1.3451,0.0396,-0.652347,-0.657429,0.377134,2
1.9875,-0.3303,0.5775,-0.858931,-0.013354,0.511918,1
1.988,-0.3717,0.5775,-0.8555159999999999,-0.019384000000000002,0.517414,1
0.355,1.3249,0.0396,-0.5813020000000001,-0.740341,0.337613,2
0.373,1.3249,0.0687,-0.6036739999999999,-0.7074239999999999,0.36759899999999995,2
-0.6408,-0.7525,-0.5977,0.035746,0.998251,-0.047094,0
-0.6202,-0.7518,-0.6225,-0.217218,0.964686,0.14898699999999998,0
-0.6655,-0.7441,-0.6639,0.502566,0.593478,0.628659,4
-0.63,-0.7441,-0.6639,-0.242902,0.726962,0.642281,4
-0.6202,-0.7441,-0.6496,-0.565454,0.756273,0.32910900000000004,4
-0.6202,-0.7329,-0.6639,-0.551582,0.423519,0.718603,4
1.9574,-0.2476,0.5362,-0.835457,-0.08088200000000001,0.543571,1
-0.6615,-0.7462,-0.6639,0.188079,0.8744850000000001,0.44710500000000003,4
1.9605,-0.2889,0.5362,-0.8395540000000001,-0.049904000000000004,0.540979,1
-0.6067,-0.7441,-0.6225,-0.66398,0.618008,0.420947,4
-0.5788,-0.7441,-0.5934,-0.585679,0.6133770000000001,0.5298579999999999,4
-0.566,-0.7239,-0.588,-0.669307,0.256036,0.697477,4
0.373,1.3115,0.0396,-0.526524,-0.7942140000000001,0.30330999999999997,2
1.962,-0.3303,0.5362,-0.8473709999999999,-0.024194,0.530449,1
1.9869,-0.3303,0.5765,-0.854039,-0.014115,0.5200170000000001,1
-0.6007,-0.7499,-0.597,-0.236134,0.932017,0.274928,0
1.963,-0.3717,0.5362,-0.8553370000000001,-0.030226,0.517189,1
1.9869,-0.3717,0.5757,-0.8531190000000001,-0.016668000000000002,0.52145,1
2.0144,-0.4132,0.6189,-0.8715799999999999,-0.035941,0.48893400000000004,1
2.0283,-0.4132,0.6457,-0.8908149999999999,-0.021747,0.453845,1
2.0162,-0.4546,0.6189,-0.868583,-0.08076,0.488918,1
2.0283,-0.4546,0.6423,-0.8912040000000001,-0.068401,0.44841499999999995,1
1.9891,-0.4132,0.5775,-0.8507870000000001,-0.032374,0.524512,1
1.9916,-0.4546,0.5775,-0.8565790000000001,-0.062488,0.512219,1
-0.5337,-0.7148,-0.5484,-0.801817,0.316879,0.506633,4
0.3316,1.3249,-0.0018,-0.6194729999999999,-0.699967,0.355387,2
2.0211,-0.4958,0.6189,-0.864024,-0.088058,0.49568999999999996,1
2.0283,-0.4958,0.632,-0.886611,-0.089491,0.453776,1
2.0248,-0.5373,0.6189,-0.8741969999999999,-0.05417,0.482541,1
2.0283,-0.5373,0.6254,-0.890532,-0.051328,0.452016,1
-0.3446,-0.62,-0.4156,-0.295068,0.9539610000000001,0.05379199999999999,0
-0.3305,-0.62,-0.3864,-0.087647,0.983,0.161332,0
-0.3305,-0.6168,-0.4156,-0.084819,0.99536,0.04543,0
1.9959,-0.4958,0.5775,-0.858575,-0.093238,0.504139,1
-0.2891,-0.62,-0.4071,0.166606,0.969908,0.177544,0
-0.2891,-0.6187,-0.4156,0.114727,0.991584,0.059983,0
2.0004,-0.5373,0.5775,-0.8605370000000001,-0.076045,0.503679,1
-0.2839,-0.62,-0.4156,0.222293,0.970975,0.088279,0
-0.3305,-0.6221,-0.3742,-0.081462,0.9769209999999999,0.197457,0
-0.2891,-0.6286,-0.3742,0.36175300000000005,0.8727530000000001,0.327777,0
1.965,-0.4132,0.5362,-0.865193,-0.056325,0.49826499999999996,1
1.9869,-0.4132,0.574,-0.856769,-0.041178,0.514054,1
1.9682,-0.4546,0.5362,-0.862203,-0.070413,0.501645,1
1.9869,-0.4546,0.5694,-0.865525,-0.075639,0.495122,1
-0.2489,-0.6614,-0.3742,0.5937560000000001,0.6733859999999999,0.44046,0
-0.2477,-0.6628,-0.3742,0.557322,0.6680470000000001,0.49305600000000005,0
-0.2063,-0.6863,-0.3742,0.298632,0.868201,0.396291,0
1.9722,-0.4958,0.5362,-0.8530989999999999,-0.082561,0.515176,1
1.9869,-0.4958,0.5616,-0.8644870000000001,-0.090178,0.494501,1
0.373,1.295,-0.0018,-0.508057,-0.807239,0.30040500000000003,2
-0.2477,-0.6298,-0.4156,0.334912,0.8557450000000001,0.394379,0
-0.2477,-0.6614,-0.3754,0.476365,0.653409,0.588331,0
-0.2063,-0.6614,-0.4095,0.390486,0.672305,0.628909,0
-0.2063,-0.6532,-0.4156,0.429094,0.647287,0.629999,0
0.4144,1.2852,0.0396,-0.470312,-0.8431200000000001,0.260681,2
-0.339,-0.62,-0.457,-0.242484,0.9657370000000001,-0.092487,0
-0.3305,-0.6182,-0.457,-0.075766,0.994576,-0.07126299999999999,0
0.4177,1.2836,0.0396,-0.437428,-0.8617040000000001,0.257143,2
-0.2891,-0.618,-0.457,0.07123,0.996409,-0.045773,0
1.9761,-0.5373,0.5362,-0.852809,-0.042256999999999996,0.52051,1
1.9869,-0.5373,0.5542,-0.858137,-0.061079999999999995,0.509774,1
-0.3305,-0.62,-0.4686,-0.138739,0.980398,-0.139901,0
-0.2891,-0.62,-0.4782,-0.002194,0.995024,-0.099607,0
1.9466,-0.4958,0.4948,-0.8423309999999999,-0.08087799999999999,0.532857,1
-0.2705,-0.62,-0.457,0.103861,0.994007,0.03411,0
1.9506,-0.5373,0.4948,-0.8606659999999999,-0.065275,0.504969,1
-0.2248,-0.62,-0.4984,-0.049415,0.998776,0.00199,0
-0.2063,-0.62,-0.4873,0.027455,0.995418,0.091588,0
-0.2063,-0.6193,-0.4984,-0.023457,0.9994850000000001,0.021882,0
1.9522,-0.2476,0.3706,-0.998926,-0.043956,0.014633000000000002,4
1.9537,-0.2889,0.3706,-0.999201,-0.039942,-0.001446,4
-0.3305,-0.6249,-0.4984,-0.09640499999999999,0.989397,-0.10862899999999999,0
-0.2891,-0.6223,-0.4984,-0.041852,0.9962219999999999,-0.07609199999999999,0
-0.2477,-0.6214,-0.457,0.033769,0.994775,0.096343,0
1.9564,-0.3303,0.3706,-0.9983770000000001,-0.04505,0.03485,4
0.3945,1.2836,-0.0018,-0.434465,-0.8656709999999999,0.248703,2
0.4144,1.2836,0.0337,-0.45200100000000004,-0.859133,0.23997,2
-0.2063,-0.6247,-0.457,0.26398499999999997,0.898285,0.351277,0
1.9585,-0.3717,0.3706,-0.9988469999999999,-0.035988,0.031778,4
-0.2477,-0.6214,-0.4984,-0.013415,0.999289,-0.035231,0
0.4624,1.2836,0.1223,-0.45778800000000003,-0.850878,0.257756,2
1.9457,-0.3717,0.3293,-0.9273450000000001,-0.033596,0.372697,4
0.4558,1.2759,0.081,-0.414286,-0.8803350000000001,0.23103600000000002,2
-0.165,-0.6892,-0.3742,0.032782,0.996865,0.072014,0
1.948,-0.4958,0.412,-0.871922,-0.075637,-0.48376800000000003,4
0.4558,1.2652,0.0396,-0.382229,-0.901533,0.202829,2
-0.1236,-0.6872,-0.3742,-0.056101,0.9981979999999999,-0.021285,0
1.9513,-0.5373,0.412,-0.9000309999999999,-0.043774,-0.433621,4
0.4144,1.2744,-0.0018,-0.39616999999999997,-0.8962549999999999,0.19944,2
-0.1956,-0.6614,-0.4156,0.38258400000000004,0.704122,0.5981989999999999,0
1.9598,-0.4132,0.3706,-0.998914,-0.035627,-0.030019999999999998,4
0.4558,1.2577,-0.0018,-0.287472,-0.9486389999999999,0.132072,2
1.9617,-0.4546,0.3706,-0.9949709999999999,-0.036466000000000005,-0.093294,4
1.9473,-0.4132,0.3293,-0.9081290000000001,-0.037745999999999995,0.41698500000000005,1
1.9493,-0.4546,0.3293,-0.922063,-0.042394,0.38471,1
0.4972,1.2661,0.1223,-0.40458099999999997,-0.892843,0.197853,2
1.9631,-0.4958,0.3706,-0.9957360000000001,-0.04717,-0.07927999999999999,4
0.5385,1.2517,0.1223,-0.240619,-0.9646049999999999,0.10788299999999999,2
1.9642,-0.5373,0.3706,-0.999727,-0.017708,-0.015219,4
0.4972,1.258,0.081,-0.325826,-0.930575,0.166939,2
1.9511,-0.4958,0.3293,-0.904596,-0.036274,0.42472299999999996,1
1.9527,-0.5373,0.3293,-0.913391,-0.018563,0.406659,1
0.5385,1.2483,0.081,-0.155051,-0.9855700000000001,0.067898,2
0.5799,1.245,0.1223,-0.079465,-0.9967790000000001,0.010813,2
0.6213,1.2431,0.1223,0.030012999999999998,-0.9975629999999999,-0.06299,2
0.5799,1.245,0.081,-0.016341,-0.999862,0.002853,2
0.6213,1.2466,0.081,0.133036,-0.983405,-0.123356,2
-0.165,-0.6772,-0.4156,0.25611999999999996,0.8376889999999999,0.482368,0
-0.1236,-0.6879,-0.4156,0.20542,0.9390379999999999,0.27569899999999997,0
-0.0822,-0.6827,-0.3742,-0.071628,0.997149,0.023719,0
-0.0615,-0.6858,-0.3494,0.0681,0.9858899999999999,0.152918,0
-0.0408,-0.6807,-0.3742,0.057048,0.985376,0.16056199999999998,0
-0.0822,-0.6869,-0.4156,-0.086742,0.995583,-0.035919,0
1.4453,-0.7441,0.5775,-0.811902,0.445038,0.37783,4
1.4489,-0.7441,0.5842,-0.742118,0.434438,0.510416,4
1.4489,-0.7392,0.5775,-0.6242300000000001,0.692037,0.36252199999999996,4
-0.0408,-0.6795,-0.4156,-0.11695699999999999,0.993087,0.010001999999999999,0
1.4396,-0.7855,0.5775,-0.9007700000000001,-0.031681,0.43313900000000005,1
1.4489,-0.7855,0.5938,-0.83636,-0.022508,0.547718,4
-0.1848,-0.62,-0.4984,0.100436,0.9837370000000001,0.148912,0
1.4489,-0.827,0.5775,-0.959742,-0.10637200000000001,0.259963,4
1.4489,-0.827,0.5777,-0.9277989999999999,-0.197717,0.31638099999999997,4
1.4489,-0.8273,0.5775,-0.8936059999999999,-0.101145,0.437308,4
-0.165,-0.6393,-0.457,0.328621,0.798324,0.5046649999999999,0
-0.165,-0.6614,-0.4338,0.350313,0.723755,0.594525,0
0.4972,1.2524,0.0396,-0.221886,-0.968967,0.108945,2
-0.1345,-0.6614,-0.457,0.462139,0.704693,0.5383640000000001,0
-0.1236,-0.6697,-0.457,0.408342,0.744582,0.528067,0
0.5385,1.2459,0.0396,-0.075202,-0.9968440000000001,0.025444,2
-0.165,-0.6223,-0.4984,0.174524,0.9478850000000001,0.26656199999999997,0
0.4972,1.2489,-0.0018,-0.137711,-0.989375,0.04662,2
0.5385,1.2464,-0.0018,0.04835,-0.995547,-0.080926,2
-0.1236,-0.6328,-0.4984,0.36188200000000004,0.8413,0.401566,0
-0.1236,-0.6614,-0.4649,0.39881500000000003,0.696917,0.5960310000000001,0
0.5799,1.2459,0.0396,0.10861900000000001,-0.989253,-0.09788,2
0.6213,1.2559,0.0396,0.301724,-0.920539,-0.24813600000000002,2
-0.0822,-0.6846,-0.457,0.277648,0.907718,0.314579,0
0.5799,1.2526,-0.0018,0.268042,-0.9325760000000001,-0.241775,2
-0.0408,-0.6841,-0.457,-0.127681,0.987302,-0.09450599999999999,0
0.6213,1.2703,-0.0018,0.313364,-0.911364,-0.266868,2
-0.0831,-0.6614,-0.4984,0.547925,0.670887,0.49968900000000005,0
0.6625,1.4076,0.6189,-0.794998,-0.266262,0.545054,2
0.6627,1.4076,0.6192,-0.788287,-0.293727,0.540674,2
-0.0822,-0.6625,-0.4984,0.550611,0.6399199999999999,0.536031,0
-0.0408,-0.6862,-0.4984,0.31164899999999995,0.9170959999999999,0.248615,0
0.6627,1.4072,0.6189,-0.757672,-0.37580399999999997,0.5335770000000001,2
0.6824,1.3663,0.6189,-0.7266020000000001,-0.46438599999999997,0.506355,2
0.7041,1.3663,0.6492,-0.7073229999999999,-0.5044029999999999,0.495249,2
1.4245,-0.7441,0.5362,-0.794721,0.48051099999999997,0.370847,4
1.4489,-0.7253,0.5362,-0.513392,0.841822,0.166626,4
1.4159,-0.7855,0.5362,-0.8725510000000001,-0.0028399999999999996,0.488515,1
1.4046,-0.7441,0.4948,-0.709238,0.56858,0.416771,4
1.4076,-0.7441,0.4997,-0.7139340000000001,0.545481,0.439032,4
1.4076,-0.7413,0.4948,-0.530013,0.771493,0.351973,4
-0.2119,-0.62,-0.5398,-0.083569,0.9961530000000001,-0.02638,0
-0.2063,-0.6194,-0.5398,-0.036923000000000004,0.9992979999999999,-0.006372999999999999,0
1.4489,-0.7214,0.4948,-0.29943200000000003,0.9462,0.12266300000000001,4
-0.2063,-0.62,-0.5514,-0.054560000000000004,0.9966010000000001,-0.061723,0
1.3919,-0.7855,0.4948,-0.8590760000000001,0.04036,0.510255,1
1.4076,-0.7855,0.521,-0.869806,0.030267000000000002,0.492465,1
-0.3305,-0.6282,-0.5398,-0.083984,0.9951,0.052185,0
-0.2891,-0.6247,-0.5398,-0.052175,0.9986360000000001,0.001996,0
1.4248,-0.827,0.5362,-0.852875,-0.115093,0.509271,4
0.6328,1.4076,0.5775,-0.7868229999999999,-0.280771,0.549616,2
1.428,-0.8684,0.5362,-0.8473629999999999,-0.018519,0.530691,4
1.4489,-0.8684,0.5706,-0.8581200000000001,-0.022136000000000003,0.512972,4
0.6535,1.3663,0.5775,-0.74505,-0.414546,0.522543,2
0.6627,1.3663,0.5913,-0.746065,-0.417254,0.518927,2
1.399,-0.827,0.4948,-0.8699459999999999,-0.094288,0.48404899999999995,4
1.4076,-0.827,0.5098,-0.847864,-0.107731,0.519154,4
1.4024,-0.8684,0.4948,-0.8709680000000001,-0.009521,0.49124700000000004,1
1.4076,-0.8684,0.5037,-0.8593069999999999,-0.020179,0.511062,4
0.7041,1.337,0.6189,-0.6804560000000001,-0.547953,0.486546,2
0.6627,1.3521,0.5775,-0.696897,-0.524054,0.489594,2
1.4754,-0.7441,0.6189,-0.698904,0.45187200000000005,0.554387,4
1.4903,-0.7441,0.6324,-0.50768,0.418793,0.7529100000000001,4
1.4903,-0.7304,0.6189,-0.454949,0.746861,0.484995,4
1.5317,-0.7158,0.6189,-0.158745,0.865527,0.475041,4
1.5317,-0.7441,0.6544,-0.175334,0.53394,0.8271430000000001,4
0.686,1.3249,0.5775,-0.65486,-0.600597,0.458739,2
0.7041,1.3249,0.604,-0.645752,-0.627029,0.43570600000000004,2
1.4665,-0.7855,0.6189,-0.744037,0.034834,0.667229,4
1.4903,-0.7855,0.6421,-0.6056819999999999,0.027762000000000002,0.795222,4
0.7041,1.3079,0.5775,-0.577751,-0.713025,0.39724,2
0.7147,1.3249,0.6189,-0.644817,-0.6003,0.47313,2
1.4903,-0.7155,0.5775,-0.379871,0.8882120000000001,0.258415,4
0.7454,1.2965,0.6189,-0.592292,-0.691955,0.41278100000000006,2
1.5317,-0.7085,0.5775,-0.093328,0.992748,0.075769,5
0.7632,1.2836,0.6189,-0.533039,-0.767762,0.355543,2
0.7868,1.2836,0.6565,-0.571142,-0.747084,0.340092,2
1.5731,-0.7441,0.6548,0.17443499999999998,0.648324,0.741113,4
1.5731,-0.7151,0.6189,0.165545,0.8837709999999999,0.43765699999999996,4
1.6145,-0.7441,0.6289,0.449683,0.549829,0.7038989999999999,4
1.6145,-0.7344,0.6189,0.457296,0.714494,0.529507,4
0.7356,1.2836,0.5775,-0.525727,-0.785018,0.327656,2
0.7454,1.2836,0.5931,-0.532108,-0.768062,0.356288,2
1.6145,-0.7855,0.6553,0.484411,0.41998199999999997,0.7674380000000001,4
-0.3305,-0.623,-0.5811,-0.006792,0.9700120000000001,0.24295999999999998,0
1.5731,-0.7057,0.5775,0.031112,0.994704,0.097954,5
-0.2891,-0.623,-0.5811,0.009519,0.990721,0.13558,0
0.6236,1.3663,0.5362,-0.7122890000000001,-0.501984,0.490568,2
1.6145,-0.7118,0.5775,0.314075,0.88085,0.354204,4
-0.2477,-0.623,-0.5398,-0.04748,0.9984649999999999,-0.028506999999999998,0
1.4751,-0.827,0.6189,-0.793571,-0.149612,0.5897979999999999,4
1.4903,-0.827,0.6363,-0.64933,-0.049595,0.758888,4
-0.2477,-0.6244,-0.5811,0.007465,0.998576,0.052816999999999996,0
1.4793,-0.8684,0.6189,-0.817095,-0.004921,0.5764819999999999,4
1.4903,-0.8684,0.6346,-0.7243029999999999,0.058235,0.687018,4
0.6579,1.3249,0.5362,-0.6494770000000001,-0.614531,0.447808,2
0.6627,1.3249,0.5434,-0.6379859999999999,-0.636521,0.43337600000000004,2
-0.2063,-0.6228,-0.5811,0.007111,0.998009,-0.062672,0
0.6627,1.3203,0.5362,-0.582052,-0.7053119999999999,0.40465999999999996,2
1.453,-0.8684,0.5775,-0.8548870000000001,-0.008881,0.518738,4
0.7041,1.2868,0.5362,-0.551199,-0.748305,0.369079,2
1.4903,-0.7141,0.5362,-0.15914,0.987242,-0.00535,5
0.628,1.3249,0.4948,-0.623334,-0.650596,0.433796,2
1.5317,-0.7093,0.5362,-0.076823,0.9947440000000001,-0.067703,5
0.6627,1.2952,0.4948,-0.5668,-0.71257,0.413499,2
1.4903,-0.7157,0.4948,-0.083968,0.9951639999999999,-0.050968,5
1.5317,-0.7134,0.4948,-0.060030999999999994,0.995231,-0.07687999999999999,5
-0.3379,-0.5786,-0.6225,0.39527199999999996,0.23934699999999998,0.886833,0
1.5731,-0.7071,0.5362,-0.035713999999999996,0.9975950000000001,-0.059401999999999996,5
1.6145,-0.7071,0.5362,0.048742,0.998518,0.024189,5
-0.3305,-0.5856,-0.6225,0.36146799999999996,0.504051,0.7843939999999999,0
-0.3305,-0.62,-0.5892,0.130802,0.8292069999999999,0.5434220000000001,0
1.5731,-0.7114,0.4948,-0.047659,0.994864,-0.089298,5
-0.2891,-0.6058,-0.6225,0.370868,0.7765920000000001,0.5092760000000001,0
-0.2891,-0.62,-0.5954,0.096208,0.951973,0.290674,0
1.6145,-0.7097,0.4948,-0.034702,0.996751,-0.072689,5
-0.3305,-0.5786,-0.625,0.38815500000000003,0.261888,0.883601,0
-0.2891,-0.5436,-0.6639,0.6673640000000001,0.26360900000000004,0.696516,0
-0.2891,-0.5786,-0.6477,0.5355800000000001,0.397485,0.7450899999999999,0
-0.2477,-0.62,-0.6207,0.183026,0.9532780000000001,0.24033800000000002,0
-0.2477,-0.6195,-0.6225,0.245038,0.9406030000000001,0.234996,0
1.3556,-0.7441,0.412,-0.708132,0.583394,0.397744,4
1.3662,-0.7441,0.4314,-0.667003,0.64684,0.369737,4
1.3662,-0.7364,0.412,-0.435934,0.8642920000000001,0.250919,4
-0.2451,-0.62,-0.6225,0.17231,0.9774219999999999,0.122297,0
-0.274,-0.5786,-0.6639,0.7264550000000001,0.383662,0.570146,0
1.3416,-0.7855,0.412,-0.8458209999999999,0.042783,0.531748,1
1.3662,-0.7855,0.4508,-0.869334,0.00799,0.49416000000000004,1
1.3768,-0.7441,0.4534,-0.7766529999999999,0.448834,0.441993,4
1.4076,-0.7269,0.4534,-0.398959,0.8981959999999999,0.184597,4
1.4489,-0.7208,0.4534,-0.088542,0.995964,0.014700999999999999,5
1.3676,-0.7855,0.4534,-0.871584,-0.002809,0.490238,1
1.4076,-0.7234,0.412,-0.202198,0.9742649999999999,0.099615,4
0.6802,1.2836,0.4948,-0.49728999999999995,-0.782486,0.37472300000000003,2
0.7041,1.2836,0.5284,-0.517691,-0.785562,0.338951,2
1.4489,-0.7206,0.412,-0.04952,0.9987729999999999,-0.0,5
0.7092,1.2836,0.5362,-0.5035350000000001,-0.793471,0.34184200000000003,2
1.3505,-0.827,0.412,-0.827892,-0.12230099999999999,0.547392,4
1.3662,-0.827,0.435,-0.841224,-0.123998,0.526277,4
1.3541,-0.8684,0.412,-0.8336620000000001,-0.029487,0.551487,4
1.3662,-0.8684,0.4301,-0.845147,-0.024899,0.533954,4
1.3771,-0.827,0.4534,-0.8635950000000001,-0.139732,0.484437,4
1.3796,-0.8684,0.4534,-0.87215,-0.021699,0.488756,1
0.7868,1.2682,0.6189,-0.480575,-0.8382139999999999,0.25777,2
0.7454,1.2775,0.5775,-0.478624,-0.821888,0.308899,2
0.7868,1.255,0.5775,-0.409603,-0.872323,0.266979,2
1.3311,-0.7441,0.3706,-0.566666,0.769475,0.294614,4
1.3662,-0.7286,0.3706,-0.33023800000000003,0.935689,0.124215,4
1.3166,-0.7855,0.3706,-0.887675,0.078576,0.453716,4
1.3248,-0.7855,0.3857,-0.850457,0.040094,0.524514,1
1.3248,-0.7515,0.3706,-0.8349190000000001,0.390572,0.38776700000000003,4
0.7041,1.2694,0.4948,-0.441749,-0.844008,0.304153,2
0.7454,1.2626,0.5362,-0.43447700000000006,-0.8544940000000001,0.284729,2
1.3113,-0.7441,0.3293,-0.70527,0.5821310000000001,0.404621,4
1.3248,-0.7441,0.3566,-0.6248640000000001,0.739133,0.25145,4
1.3248,-0.7362,0.3293,-0.368053,0.9059440000000001,0.20929099999999998,4
0.7868,1.2438,0.5362,-0.358562,-0.9049530000000001,0.22911199999999998,2
1.3662,-0.726,0.3293,-0.177182,0.979419,0.096673,4
0.7454,1.2489,0.4948,-0.37638699999999997,-0.892332,0.249151,2
1.2922,-0.7855,0.3293,-0.844406,0.14188900000000002,0.516572,4
0.7645,1.2422,0.4948,-0.291263,-0.939132,0.182198,2
0.7868,1.2422,0.5294,-0.285174,-0.9414469999999999,0.179868,2
0.7868,1.2359,0.4948,-0.157447,-0.985028,0.07021000000000001,2
1.4076,-0.7236,0.3706,-0.088635,0.995935,0.016043,5
1.4489,-0.7206,0.3706,-0.047355,0.998878,-0.0004940000000000001,5
0.8282,1.2464,0.6189,-0.396092,-0.899647,0.183701,2
1.4076,-0.7227,0.3293,-0.059102999999999996,0.998109,0.016869,5
0.8399,1.2422,0.6189,-0.301723,-0.940738,0.154842,2
0.8696,1.2338,0.6189,-0.22528600000000001,-0.9675889999999999,0.114094,2
-0.2477,-0.6103,-0.6639,0.53827,0.777243,0.32582,0
0.8205,1.2422,0.5775,-0.306056,-0.934335,0.182614,2
0.8282,1.2422,0.5923,-0.324642,-0.9310309999999999,0.166701,2
0.8282,1.2398,0.5775,-0.254198,-0.953936,0.159341,2
-0.2318,-0.62,-0.6639,0.365288,0.9274549999999999,0.079952,0
0.8696,1.2306,0.5775,-0.143873,-0.987466,0.06489,2
0.911,1.2278,0.6189,-0.012913999999999998,-0.9999040000000001,0.005009,2
0.9524,1.2308,0.6189,0.048303,-0.997819,-0.044983999999999996,2
0.911,1.2303,0.5775,0.043706999999999996,-0.997081,-0.06260800000000001,2
0.9524,1.2333,0.5775,0.096696,-0.9900559999999999,-0.102171,2
-0.2063,-0.6252,-0.6225,0.12728699999999998,0.989972,-0.061263,0
0.7915,1.2422,0.5362,-0.293435,-0.9324690000000001,0.210708,2
-0.2063,-0.6286,-0.6639,0.2898,0.9561290000000001,-0.042812,0
0.8282,1.2327,0.5362,-0.19181099999999998,-0.975142,0.11093499999999999,2
0.8696,1.2306,0.5362,0.023177,-0.9992540000000001,-0.030889,2
-0.165,-0.62,-0.5128,0.10756600000000001,0.988582,0.105521,0
-0.165,-0.6184,-0.5398,0.014855000000000002,0.999798,-0.013531,0
-0.1426,-0.62,-0.5398,0.11764000000000001,0.992024,0.045277,0
0.8282,1.2306,0.4948,-0.066357,-0.99779,0.0035909999999999996,2
-0.165,-0.62,-0.5636,0.029033999999999997,0.9934459999999999,-0.110554,0
0.8696,1.2335,0.4948,0.093602,-0.9915879999999999,-0.089396,2
0.911,1.2343,0.5362,0.10083400000000001,-0.989728,-0.10135,2
0.9524,1.2377,0.5362,0.132253,-0.980814,-0.14322200000000002,2
-0.1236,-0.6223,-0.5398,0.215387,0.9727450000000001,0.085881,0
0.9524,1.2464,0.4948,0.322006,-0.907963,-0.26816999999999996,2
0.9524,1.2422,0.512,0.230413,-0.9502799999999999,-0.209468,2
0.9376,1.2422,0.4948,0.226187,-0.955031,-0.191719,2
0.911,1.2375,0.4948,0.134422,-0.985187,-0.106473,2
-0.165,-0.6231,-0.5811,0.040642000000000005,0.990016,-0.134966,0
-0.1236,-0.6253,-0.5811,0.147455,0.982632,-0.112657,0
-0.0822,-0.6358,-0.5398,0.47416800000000003,0.859851,0.18926400000000002,0
-0.0822,-0.6614,-0.4993,0.527942,0.678662,0.510582,0
1.4489,-0.7211,0.3293,-0.029410000000000002,0.9995379999999999,-0.007659999999999999,5
-0.0572,-0.6614,-0.5398,0.674225,0.7127220000000001,0.19351500000000002,0
0.649,1.2836,0.4534,-0.51636,-0.784384,0.343677,2
0.6627,1.2836,0.4721,-0.49638999999999994,-0.782805,0.375251,2
1.3234,-0.827,0.3706,-0.839764,-0.126987,0.527892,4
1.3248,-0.827,0.3729,-0.843872,-0.138679,0.518312,4
0.6225,1.2836,0.412,-0.492154,-0.80485,0.33166599999999996,2
-0.0408,-0.6802,-0.5398,0.450492,0.888107,0.09123200000000001,0
1.3248,-0.8371,0.3706,-0.8358469999999999,-0.076736,0.543573,4
-0.0822,-0.6345,-0.5811,0.461991,0.879712,-0.112568,0
1.3266,-0.8684,0.3706,-0.839443,-0.016447999999999997,0.543199,4
0.9524,1.2901,0.3706,0.31544,-0.815293,-0.485587,2
0.9524,1.2836,0.3883,0.346048,-0.8788450000000001,-0.328453,2
0.9356,1.2836,0.3706,0.36934,-0.839007,-0.39957,2
1.2966,-0.827,0.3293,-0.8381860000000001,-0.073839,0.540363,4
0.911,1.2864,0.3293,0.557571,-0.773842,-0.300471,2
0.911,1.2836,0.3393,0.45894700000000005,-0.829735,-0.31766,2
0.9008,1.2836,0.3293,0.33370500000000003,-0.898734,-0.284462,2
1.2983,-0.8684,0.3293,-0.820148,-0.014846000000000002,0.57196,4
1.3248,-0.8684,0.3677,-0.833518,-0.015631,0.552271,4
0.9513,1.3249,0.3293,0.635872,-0.686721,-0.352252,2
0.9524,1.3249,0.3308,0.490562,-0.7033149999999999,-0.514486,2
0.6627,1.2752,0.4534,-0.466215,-0.8209620000000001,0.32964499999999997,2
1.4903,-0.7179,0.4534,-0.062926,0.9974620000000001,-0.033305,5
0.7041,1.2535,0.4534,-0.377715,-0.883325,0.27761399999999997,2
1.5317,-0.7164,0.4534,-0.041769,0.997763,-0.052203,5
0.6627,1.2605,0.412,-0.417188,-0.874822,0.24625500000000003,2
1.4903,-0.7193,0.412,-0.038117000000000005,0.9991680000000001,-0.014469,5
0.7041,1.2441,0.412,-0.307182,-0.934378,0.18049,2
1.5317,-0.7181,0.412,-0.0366,0.999128,-0.020104,5
0.7377,1.2422,0.4534,-0.265916,-0.951376,0.155472,2
0.7454,1.2422,0.4655,-0.284542,-0.9376049999999999,0.19983,2
1.5731,-0.7148,0.4534,-0.047199,0.997042,-0.060661,5
1.6145,-0.7125,0.4534,-0.046119,0.9973479999999999,-0.056296000000000006,5
0.7454,1.2401,0.4534,-0.202999,-0.970074,0.133223,2
1.5731,-0.7162,0.412,-0.044324,0.9987469999999999,-0.023212,5
0.7868,1.234,0.4534,-0.102405,-0.993093,0.057266,2
1.6145,-0.7141,0.412,-0.039831,0.9986360000000001,-0.03377,5
0.7113,1.2422,0.412,-0.23551100000000003,-0.9588629999999999,0.158478,2
1.4903,-0.7195,0.3706,-0.030006,0.999532,-0.005874,5
0.7454,1.2359,0.412,-0.136265,-0.9887370000000001,0.061895000000000006,2
1.5317,-0.7181,0.3706,-0.039823000000000004,0.9992040000000001,-0.002418,5
0.7868,1.2354,0.412,0.026899,-0.999041,-0.034543,2
1.4903,-0.7199,0.3293,-0.033793000000000004,0.9993700000000001,-0.010870999999999999,5
1.5317,-0.7181,0.3293,-0.039017,0.999175,-0.011265,5
0.6627,1.2507,0.3706,-0.311287,-0.926047,0.21339699999999998,2
1.5731,-0.7164,0.3706,-0.033795,0.999417,-0.004836,5
1.6145,-0.7153,0.3706,-0.024848,0.999416,-0.023469,5
0.6891,1.2422,0.3706,-0.270081,-0.951865,0.144946,2
0.7041,1.2422,0.4001,-0.23520500000000003,-0.9639110000000001,0.12471600000000001,2
1.5731,-0.7167,0.3293,-0.024544,0.999569,-0.016112,5
0.7041,1.2383,0.3706,-0.165526,-0.981554,0.095669,2
1.6145,-0.7164,0.3293,-0.014509999999999999,0.9997510000000001,-0.016934,5
0.6627,1.2424,0.3293,-0.229402,-0.9621639999999999,0.147021,2
0.6641,1.2422,0.3293,-0.18045899999999998,-0.973648,0.139444,2
1.6261,-0.7441,0.6189,0.52282,0.605364,0.600161,4
-0.047,-0.6614,-0.5811,0.620085,0.784521,0.004504,0
0.7041,1.2357,0.3293,-0.116849,-0.9921770000000001,0.043949,2
1.6558,-0.7727,0.6189,0.492217,0.503958,0.709753,4
1.6558,-0.7855,0.6275,0.492703,0.42795200000000005,0.757694,4
-0.0408,-0.6679,-0.5811,0.619678,0.7783260000000001,0.10103,0
0.7454,1.235,0.3706,-0.033803,-0.9991180000000001,0.024912,2
1.668,-0.7855,0.6189,0.49860600000000005,0.44581099999999996,0.7434,4
0.7868,1.237,0.3706,0.100887,-0.9922200000000001,-0.072943,2
-0.165,-0.6287,-0.6225,0.11261800000000001,0.979978,-0.164193,0
1.6558,-0.7441,0.5955,0.41904600000000003,0.651321,0.632599,4
1.6558,-0.7297,0.5775,0.301086,0.801499,0.5166689999999999,4
0.7454,1.2355,0.3293,0.07967300000000001,-0.994483,-0.068239,2
-0.1236,-0.6337,-0.6225,0.265354,0.9107430000000001,-0.316442,0
1.6865,-0.7441,0.5775,0.295585,0.6506810000000001,0.6994600000000001,4
0.7868,1.2403,0.3293,0.158829,-0.9802420000000001,-0.11789300000000001,2
-0.165,-0.6381,-0.6639,0.306555,0.91214,-0.272073,0
0.8282,1.2345,0.4534,0.032258999999999996,-0.997036,-0.06984800000000001,2
-0.1236,-0.6517,-0.6639,0.318571,0.8485469999999999,-0.42246999999999996,0
1.6972,-0.7855,0.6003,0.425299,0.493385,0.758744,4
1.6972,-0.7487,0.5775,0.323633,0.49474700000000005,0.806528,4
0.8696,1.2369,0.4534,0.10691600000000001,-0.987648,-0.114543,2
-0.0822,-0.6488,-0.6225,0.376714,0.8446819999999999,-0.380262,0
0.8696,1.2429,0.412,0.243788,-0.93945,-0.240833,2
0.8696,1.2422,0.4158,0.21704299999999999,-0.9584459999999999,-0.185131,2
0.8652,1.2422,0.412,0.14975,-0.9731360000000001,-0.174876,2
1.7367,-0.7855,0.5775,0.427597,0.421411,0.799733,4
-0.0585,-0.6614,-0.6225,0.437749,0.851404,-0.28894200000000003,0
0.8282,1.238,0.412,0.118191,-0.9899530000000001,-0.07761699999999999,2
-0.0408,-0.6693,-0.6225,0.493663,0.8528549999999999,-0.170102,0
1.6558,-0.827,0.6515,0.48908999999999997,0.415627,0.766841,4
1.6972,-0.8189,0.6189,0.49828599999999995,0.429784,0.752991,4
1.6972,-0.827,0.6235,0.46224,0.45572299999999993,0.760692,4
-0.1007,-0.6614,-0.6639,0.357622,0.8457889999999999,-0.395913,0
-0.0822,-0.6614,-0.6449,0.35918,0.844007,-0.3983,0
0.9524,1.2608,0.4534,0.34562,-0.8930819999999999,-0.288013,2
0.911,1.2422,0.461,0.225848,-0.959908,-0.16603900000000002,2
0.911,1.2436,0.4534,0.3727,-0.8970809999999999,-0.237362,2
-0.0822,-0.6697,-0.6639,0.357426,0.851259,-0.384195,0
1.6972,-0.8684,0.6513,0.394503,0.5167930000000001,0.759798,4
0.9044,1.2422,0.4534,0.18575899999999998,-0.9702,-0.155584,2
-0.0408,-0.6856,-0.6639,0.336687,0.869251,-0.362001,0
0.911,1.258,0.412,0.346401,-0.8871959999999999,-0.30478,2
1.705,-0.827,0.6189,0.44325,0.517889,0.7316560000000001,4
1.7386,-0.8554,0.6189,0.40016999999999997,0.577162,0.711862,4
1.7386,-0.8684,0.6308,0.314184,0.589341,0.744289,4
1.7589,-0.8684,0.6189,0.37051300000000004,0.640749,0.6724289999999999,4
0.9524,1.2761,0.412,0.333507,-0.884292,-0.326804,2
-1.129,-0.0407,-0.7053,-0.642813,0.760522,0.091637,0
-1.1167,-0.0407,-0.6778,-0.428604,0.7936270000000001,0.431804,0
-1.1167,-0.0329,-0.7053,-0.332416,0.933882,0.131773,0
-1.1167,-0.0407,-0.7451,-0.579757,0.769863,-0.26682,4
-1.0754,-0.0407,-0.6789,0.219725,0.621008,0.752376,0
-1.0754,-0.0231,-0.7053,0.0033350000000000003,0.907542,0.41994799999999993,0
0.8696,1.2566,0.3706,0.332554,-0.8950440000000001,-0.29716,2
0.8309,1.2422,0.3706,0.25910900000000003,-0.9521219999999999,-0.162253,2
1.7386,-0.827,0.5967,0.414875,0.560357,0.716853,4
-1.034,-0.0407,-0.696,0.284569,0.512922,0.809896,0
-1.034,-0.0287,-0.7053,0.16649,0.8532190000000001,0.49426499999999995,0
1.6558,-0.7111,0.5362,0.145677,0.968414,0.20236700000000002,4
-1.1155,-0.0407,-0.7467,-0.417418,0.821894,-0.387623,4
-1.0754,-0.0216,-0.7467,-0.2603,0.9563709999999999,-0.132656,0
1.6972,-0.7162,0.5362,0.203019,0.8825959999999999,0.424037,4
-1.034,-0.0121,-0.7467,-0.06404299999999999,0.994559,0.082164,0
1.6972,-0.7441,0.5744,0.250677,0.672758,0.696101,4
1.6558,-0.7078,0.4948,0.015588,0.99972,-0.017808,5
1.6972,-0.7106,0.4948,0.06739400000000001,0.996078,0.05732999999999999,4
-1.1581,-0.0705,-0.7053,-0.7106140000000001,0.702308,-0.042317,4
-1.1581,-0.082,-0.6785,-0.6637850000000001,0.654953,0.361146,0
1.7386,-0.7441,0.5565,0.43090600000000007,0.553358,0.7128220000000001,4
1.7386,-0.7279,0.5362,0.39654,0.811021,0.43011800000000006,4
1.7609,-0.7441,0.5362,0.5540729999999999,0.649676,0.520504,4
1.7386,-0.7855,0.5764,0.531249,0.367035,0.763583,4
1.78,-0.7729,0.5362,0.610578,0.39815500000000004,0.684593,4
-1.158,-0.082,-0.7467,-0.6601640000000001,0.673078,-0.333391,4
-1.1581,-0.082,-0.7465,-0.676852,0.687416,-0.263306,4
-1.1167,-0.0415,-0.7467,-0.5882029999999999,0.723332,-0.361673,4
1.7386,-0.7153,0.4948,0.242367,0.9279700000000001,0.283071,4
1.78,-0.7441,0.5182,0.499461,0.6173390000000001,0.607809,4
1.78,-0.7255,0.4948,0.330884,0.814311,0.47688,4
-1.0754,-0.082,-0.6642,0.465182,0.29683400000000004,0.8339639999999999,0
-1.034,-0.082,-0.6856,0.41779399999999994,0.169441,0.892602,0
0.8282,1.2415,0.3706,0.17876,-0.9768950000000001,-0.11713399999999999,2
0.8282,1.2526,0.3293,0.34909,-0.892899,-0.284373,2
0.8282,1.2422,0.3661,0.243038,-0.95158,-0.188224,2
0.7959,1.2422,0.3293,0.223831,-0.9604790000000001,-0.165467,2
1.805,-0.7441,0.4948,0.532896,0.586233,0.6102069999999999,4
0.8696,1.273,0.3293,0.345169,-0.907673,-0.23872100000000002,2
1.8214,-0.766,0.4948,0.511475,0.426012,0.746263,4
-1.0116,-0.0407,-0.7053,0.370562,0.550692,0.747945,0
0.911,1.275,0.3706,0.351171,-0.8860790000000001,-0.302559,2
-0.9926,-0.0148,-0.7467,0.193296,0.869569,0.454408,0
-0.9926,-0.0407,-0.7157,0.440304,0.399267,0.804188,0
-0.9512,-0.0407,-0.7383,0.355531,0.49295500000000003,0.794099,0
-0.9512,-0.0299,-0.7467,0.339781,0.736899,0.584404,0
-0.932,-0.0407,-0.7467,0.32716,0.569602,0.754003,0
-1.034,-0.0209,-0.7881,-0.305252,0.8806370000000001,-0.36235300000000004,4
-0.9926,-0.013,-0.7881,-0.13508,0.9660540000000001,-0.22021,0
-0.9512,-0.0114,-0.7881,0.109979,0.9831219999999999,0.146207,0
1.0351,1.2858,0.4948,0.6529229999999999,-0.721907,-0.229219,2
1.0351,1.2836,0.5022,0.585593,-0.745926,-0.317293,2
1.0318,1.2836,0.4948,0.495364,-0.8442040000000001,-0.204777,2
-1.0214,-0.0407,-0.8294,-0.253725,0.862483,-0.43788999999999995,4
-1.034,-0.0407,-0.8224,-0.380904,0.81501,-0.436659,4
-0.9926,-0.03,-0.8294,-0.280024,0.8877290000000001,-0.36540900000000004,0
-0.9512,-0.0192,-0.8294,-0.1158,0.949792,-0.290663,0
1.0765,1.2957,0.5362,0.47106899999999996,-0.650155,-0.596148,2
1.0765,1.2836,0.5534,0.455374,-0.796732,-0.397306,2
1.0598,1.2836,0.5362,0.510637,-0.702652,-0.49551000000000006,2
-0.9098,-0.0142,-0.7881,0.21418099999999998,0.877274,0.42955299999999996,0
-0.9098,-0.0407,-0.755,0.41148199999999996,0.46953999999999996,0.781162,0
-0.8684,-0.0407,-0.7822,0.45982399999999995,0.501173,0.733067,0
-0.8684,-0.0336,-0.7881,0.45934899999999995,0.701915,0.544347,0
-0.9098,-0.0151,-0.8294,-0.026146,0.977251,-0.21047,0
-0.8684,-0.0149,-0.8294,0.102533,0.9861780000000001,0.130151,0
-0.8602,-0.0407,-0.7881,0.446842,0.530968,0.720003,0
-0.8271,-0.0407,-0.7987,0.23658,0.548381,0.8020649999999999,0
-0.8271,-0.0149,-0.8294,0.105208,0.919797,0.378029,0
-0.7857,-0.0407,-0.813,0.341078,0.528334,0.777515,0
-0.7857,-0.0245,-0.8294,0.343978,0.8230149999999999,0.452024,0
-0.7598,-0.0407,-0.8294,0.404141,0.615953,0.676219,0
1.9394,-0.5786,0.4534,-0.9994370000000001,0.032387,0.008781,4
1.9455,-0.5786,0.481,-0.951364,0.01061,0.30788699999999997,4
-0.9936,-0.082,-0.7053,0.47332700000000005,0.131774,0.870975,0
1.0672,1.3249,0.4948,0.733406,-0.615362,-0.28886799999999996,2
1.0765,1.3249,0.5113,0.604541,-0.595096,-0.529519,2
1.9351,-0.62,0.4534,-0.9970120000000001,0.068949,0.03483,4
1.9455,-0.62,0.4845,-0.907185,0.018721,0.42031599999999997,1
-0.9926,-0.0968,-0.7053,0.45170200000000005,0.036855,0.891407,0
-1.034,-0.1235,-0.6838,0.44118199999999996,0.037913999999999996,0.896616,0
-0.9926,-0.1235,-0.7042,0.4443,0.036876,0.895119,0
1.9455,-0.5786,0.4233,-0.9496290000000001,0.031519,-0.311786,4
1.9455,-0.62,0.4148,-0.8907139999999999,0.096206,-0.444267,4
1.9315,-0.6614,0.4534,-0.9823649999999999,0.121751,0.141901,4
1.9455,-0.6614,0.4857,-0.88374,0.013852000000000001,0.46777299999999994,1
1.9252,-0.7027,0.4534,-0.835664,0.34631999999999996,0.426296,4
1.9455,-0.7027,0.4852,-0.861023,0.034714,0.50738,1
1.9371,-0.6614,0.412,-0.86905,0.484786,0.098664,4
1.9455,-0.6298,0.412,-0.9430290000000001,0.214779,-0.25409899999999996,4
1.9077,-0.7027,0.412,-0.648992,0.682752,0.335647,4
1.9396,-0.62,0.3293,-0.695991,0.547558,0.46451899999999996,4
1.9455,-0.62,0.3376,-0.764306,0.47721800000000003,0.433704,4
1.9455,-0.6091,0.3293,-0.847143,0.269516,0.457942,4
1.8439,-0.7027,0.3706,-0.144673,0.958933,0.243963,4
1.8628,-0.7027,0.3798,-0.21064899999999998,0.918308,0.33516799999999997,4
1.8628,-0.6993,0.3706,-0.23845700000000003,0.90354,0.35602399999999995,4
1.8125,-0.7027,0.3293,-0.239416,0.961159,0.137309,4
1.8214,-0.7027,0.3455,-0.219115,0.966892,0.130796,4
1.8214,-0.7004,0.3293,-0.32514099999999996,0.932119,0.15948900000000002,4
1.8628,-0.682,0.3293,-0.417613,0.8525739999999999,0.314192,4
1.9337,-0.6614,0.3706,-0.679241,0.663855,0.312933,4
1.9455,-0.6456,0.3706,-0.841867,0.49629799999999996,0.212009,4
0.9937,1.2336,0.6189,0.11673199999999999,-0.9878620000000001,-0.10248199999999999,2
1.9041,-0.6848,0.3706,-0.48562,0.7923399999999999,0.369283,4
1.9041,-0.7027,0.4047,-0.459262,0.8230299999999999,0.334215,4
-0.9904,-0.1235,-0.7053,0.441916,0.042429,0.8960530000000001,0
-0.9926,-0.082,-0.7059,0.477761,0.120012,0.8702540000000001,0
-0.9512,-0.082,-0.7266,0.42557,0.134441,0.894883,0
1.8959,-0.6614,0.3293,-0.535424,0.7438779999999999,0.399959,4
1.9041,-0.6614,0.3382,-0.569999,0.6628649999999999,0.4855,4
1.9041,-0.6556,0.3293,-0.5832510000000001,0.6891550000000001,0.429982,4
-0.9512,-0.1235,-0.7245,0.433593,0.053051,0.899546,0
-0.9098,-0.0706,-0.7467,0.415379,0.164734,0.894608,0
-0.9098,-0.082,-0.7458,0.40675300000000003,0.054657000000000004,0.911902,0
-0.9077,-0.082,-0.7467,0.42670699999999995,0.055871000000000004,0.9026620000000001,0
1.6558,-0.7106,0.4534,-0.007693000000000001,0.998883,-0.046613999999999996,5
-0.9098,-0.1235,-0.7441,0.410529,0.047580000000000004,0.9106049999999999,0
1.6972,-0.7106,0.4534,-0.013994999999999999,0.9998290000000001,-0.012065000000000001,5
-0.9038,-0.1235,-0.7467,0.42045600000000005,0.062529,0.9051549999999999,0
1.6558,-0.7129,0.412,-0.028987,0.9987520000000001,-0.040661,5
1.6972,-0.712,0.412,-0.028948,0.998994,-0.034262,5
1.7386,-0.7102,0.4534,0.024674,0.998081,0.056799,5
1.0351,1.2387,0.6189,0.179047,-0.971984,-0.152279,2
1.78,-0.712,0.4534,0.12239900000000001,0.973244,0.194458,4
1.7386,-0.7099,0.412,-0.038202999999999994,0.9991760000000001,-0.013666999999999999,5
1.78,-0.7086,0.412,-0.006072,0.9997010000000001,0.023681,5
0.9937,1.2371,0.5775,0.16405799999999998,-0.9751129999999999,-0.149128,2
-0.9853,-0.1648,-0.7053,0.433488,0.054765,0.899494,0
-0.9512,-0.1648,-0.7216,0.427785,0.056888,0.9020879999999999,0
1.0144,1.2422,0.5775,0.278644,-0.930683,-0.23703600000000002,2
1.0351,1.2422,0.6039,0.314636,-0.91304,-0.25954099999999997,2
1.6558,-0.7146,0.3706,-0.025604000000000002,0.9991479999999999,-0.032376,5
-0.9808,-0.2062,-0.7053,0.42169799999999996,0.043733999999999995,0.905681,0
-0.9512,-0.2062,-0.7189,0.42411800000000005,0.040949,0.904681,0
1.0765,1.2558,0.6189,0.453804,-0.835327,-0.310309,2
1.0765,1.2422,0.6523,0.352767,-0.894817,-0.273602,2
1.0464,1.2422,0.6189,0.313612,-0.921426,-0.22939299999999999,2
1.6972,-0.713,0.3706,-0.043419,0.9987309999999999,-0.025526,5
-0.9098,-0.1648,-0.7412,0.41114799999999996,0.059503999999999994,0.909624,0
1.6558,-0.7157,0.3293,-0.0276,0.9994700000000001,-0.017265,5
1.1179,1.2816,0.6189,0.5979270000000001,-0.768243,-0.22866199999999998,2
-0.897,-0.1648,-0.7467,0.406221,0.062921,0.9116059999999999,0
1.6972,-0.7139,0.3293,-0.048717,0.998484,-0.025599,5
-0.9098,-0.2062,-0.7389,0.41306899999999996,0.046171,0.9095280000000001,0
1.7386,-0.7107,0.3706,-0.050988,0.998556,-0.016906,5
-0.8916,-0.2062,-0.7467,0.403504,0.041210000000000004,0.914049,0
1.78,-0.7088,0.3706,-0.061270000000000005,0.9975940000000001,0.032451999999999995,5
1.0765,1.2738,0.5775,0.43562,-0.835723,-0.334367,2
1.0351,1.2506,0.5775,0.42881899999999995,-0.8355379999999999,-0.343496,2
1.0961,1.2836,0.5775,0.43309,-0.83231,-0.345968,2
1.1179,1.2836,0.6077,0.494687,-0.834485,-0.242734,2
-0.8684,-0.082,-0.7679,0.46850299999999995,0.16594,0.8677379999999999,0
0.9937,1.248,0.5362,0.37187,-0.875707,-0.307976,2
0.9937,1.2422,0.5546,0.271497,-0.9297030000000001,-0.24888000000000002,2
0.9763,1.2422,0.5362,0.241414,-0.9424809999999999,-0.231192,2
-0.8684,-0.1235,-0.7636,0.4325,0.08405599999999999,0.8977069999999999,0
1.0351,1.2696,0.5362,0.428201,-0.831117,-0.354808,2
-0.8684,-0.1648,-0.7597,0.42816800000000005,0.06627999999999999,0.901265,0
-0.8684,-0.2062,-0.757,0.43066099999999996,0.029535000000000002,0.9020299999999999,0
0.9937,1.2641,0.4948,0.38150700000000004,-0.879827,-0.283473,2
-0.8271,-0.0792,-0.7881,0.351022,0.211799,0.912099,0
-0.8271,-0.082,-0.7877,0.36208,0.108456,0.925816,0
-0.8258,-0.082,-0.7881,0.329486,0.108349,0.937923,0
-0.8271,-0.1235,-0.7839,0.39116300000000004,0.08393300000000001,0.916486,0
-0.8166,-0.1235,-0.7881,0.379802,0.070001,0.922415,0
-0.7857,-0.082,-0.803,0.41426999999999997,0.146833,0.8982319999999999,0
-0.7857,-0.1235,-0.8016,0.438666,0.055009,0.896965,0
-0.7443,-0.0602,-0.8294,0.402194,0.235327,0.8847940000000001,0
-0.7443,-0.082,-0.8262,0.443858,0.091062,0.891458,0
-0.737,-0.082,-0.8294,0.390326,0.07812000000000001,0.917356,0
-0.7443,-0.1235,-0.8238,0.44952600000000004,0.049932,0.8918709999999999,0
1.0351,1.2956,0.4534,0.48432299999999995,-0.785589,-0.385073,2
1.0147,1.2836,0.4534,0.41571099999999994,-0.823895,-0.385204,2
-0.7326,-0.1235,-0.8294,0.411364,0.042956,0.910458,0
-0.8271,-0.1648,-0.7803,0.414062,0.07179400000000001,0.9074129999999999,0
0.9937,1.2919,0.412,0.592612,-0.746613,-0.30229,2
0.9937,1.2836,0.4325,0.480166,-0.794972,-0.370756,2
0.9759,1.2836,0.412,0.34231500000000004,-0.8816,-0.324963,2
-0.8088,-0.1648,-0.7881,0.403767,0.05959299999999999,0.912919,0
-0.8271,-0.2062,-0.7777,0.431454,0.03246,0.901551,0
1.02,1.3249,0.412,0.6761149999999999,-0.6245689999999999,-0.390874,2
1.0351,1.3249,0.4285,0.5001479999999999,-0.6201720000000001,-0.60435,2
-0.8047,-0.2062,-0.7881,0.421401,0.020666999999999998,0.906639,0
-0.7857,-0.1648,-0.7985,0.44488199999999994,0.047024,0.8943540000000001,0
-0.7857,-0.2062,-0.7969,0.44897700000000007,0.007265000000000001,0.8935139999999999,0
-0.7443,-0.1648,-0.821,0.457,0.05341,0.887862,0
1.0511,1.3249,0.4534,0.740188,-0.607672,-0.28784899999999997,2
-0.7273,-0.1648,-0.8294,0.424677,0.043954,0.904277,0
-0.7443,-0.2062,-0.8192,0.45967299999999994,0.022874000000000002,0.8877940000000001,0
-0.7239,-0.2062,-0.8294,0.428671,0.021439,0.903206,0
-0.8684,-0.0223,-0.8708,-0.198579,0.91007,-0.36378499999999997,0
-0.8271,-0.0159,-0.8708,-0.110803,0.958894,-0.261236,0
-0.7857,-0.0155,-0.8708,0.104771,0.993674,0.040438999999999996,0
-0.8439,-0.0407,-0.9122,-0.20193599999999998,0.854268,-0.47900699999999996,4
-0.8684,-0.0407,-0.9022,-0.23891700000000002,0.851659,-0.466471,4
-0.8271,-0.0357,-0.9122,-0.211723,0.860116,-0.464084,4
-0.7857,-0.0266,-0.9122,-0.145453,0.895358,-0.420925,0
-0.7443,-0.0177,-0.8708,0.126387,0.9316629999999999,0.340634,0
-0.7443,-0.0407,-0.8377,0.328413,0.601167,0.728521,0
-0.7029,-0.0407,-0.853,0.343069,0.5198619999999999,0.782334,0
-0.7029,-0.0249,-0.8708,0.290794,0.8642790000000001,0.41043999999999997,0
0.9937,1.2773,0.4534,0.316271,-0.906098,-0.280998,2
-0.7443,-0.021,-0.9122,-0.063858,0.96791,-0.243046,0
-0.7029,-0.0185,-0.9122,0.055775,0.997725,-0.037863,0
-0.7029,-0.082,-0.8426,0.41530600000000006,0.10400799999999999,0.903716,0
-0.7029,-0.1235,-0.8424,0.426325,0.031439,0.9040239999999999,0
-0.7029,-0.1648,-0.8403,0.43155,0.036035000000000005,0.9013690000000001,0
-0.7029,-0.2062,-0.8389,0.43501599999999996,0.011289,0.900352,0
1.7386,-0.7118,0.3293,-0.058321000000000005,0.99785,-0.029912,5
1.78,-0.7088,0.3293,-0.14449700000000001,0.988992,0.031867,5
0.911,1.3029,0.2879,0.572755,-0.770491,-0.279814,2
0.882,1.2836,0.2879,0.378471,-0.909402,-0.172478,2
1.8214,-0.7208,0.4534,0.256867,0.8374510000000001,0.48238400000000003,4
0.9237,1.3249,0.2879,0.750373,-0.5828409999999999,-0.311829,2
1.8214,-0.7441,0.4814,0.402544,0.601428,0.690103,4
1.8628,-0.7441,0.4658,0.20819400000000002,0.495543,0.8432629999999999,4
1.8628,-0.7297,0.4534,0.051892999999999995,0.75336,0.655558,4
1.8628,-0.7855,0.4805,0.323637,0.316598,0.891642,4
1.8214,-0.7092,0.412,0.022021000000000002,0.9900530000000001,0.138963,4
1.8628,-0.712,0.412,-0.046773,0.947003,0.317801,4
1.9041,-0.7441,0.4638,-0.187589,0.407722,0.8936290000000001,4
1.9041,-0.7262,0.4534,-0.360734,0.704917,0.610707,4
1.9455,-0.7441,0.4874,-0.662017,0.145316,0.735267,4
1.9041,-0.7855,0.4712,-0.208058,0.11243099999999999,0.971633,4
1.9455,-0.7855,0.4881,-0.628479,-0.045091,0.776519,4
1.9041,-0.7048,0.412,-0.322758,0.879294,0.350242,4
1.9455,-0.827,0.4818,-0.607563,-0.08356799999999999,0.789863,4
1.8214,-0.7058,0.3706,-0.103896,0.9893770000000001,0.101681,5
-0.9783,-0.2476,-0.7053,0.411017,0.030261,0.911125,0
-0.9512,-0.2476,-0.7173,0.425591,0.052459000000000006,0.903394,0
0.8282,1.2859,0.2051,0.500151,-0.798164,-0.335833,2
0.8282,1.2836,0.2143,0.41420500000000005,-0.86325,-0.288503,2
0.8214,1.2836,0.2051,0.327379,-0.892157,-0.311253,2
0.8672,1.3249,0.2051,0.645296,-0.672566,-0.362281,2
0.8696,1.3249,0.2078,0.5709380000000001,-0.65104,-0.5001770000000001,2
0.856,1.2836,0.2465,0.325178,-0.900373,-0.289114,2
0.8282,1.3111,0.1637,0.515089,-0.775442,-0.365203,2
0.7883,1.2836,0.1637,0.39155500000000004,-0.881474,-0.263986,2
0.6407,1.2422,0.2879,-0.22258899999999998,-0.969534,0.102265,2
0.6627,1.2422,0.3274,-0.189866,-0.9765870000000001,0.101133,2
0.6627,1.2378,0.2879,-0.095093,-0.9948229999999999,0.035838,2
0.7041,1.2361,0.2879,0.02219,-0.9990049999999999,-0.038689,2
0.6275,1.2422,0.2465,-0.15271300000000002,-0.98775,0.032092,2
0.6627,1.2378,0.2465,-0.08910599999999999,-0.9959680000000001,-0.0104,2
0.7041,1.2378,0.2465,0.069814,-0.995976,-0.056188,2
0.7868,1.2496,0.2879,0.33815700000000004,-0.9046879999999999,-0.25921,2
0.7868,1.2422,0.3175,0.250487,-0.946366,-0.20407899999999998,2
0.7638,1.2422,0.2879,0.22743899999999997,-0.954309,-0.193821,2
0.7454,1.2391,0.2879,0.11855299999999999,-0.9855430000000001,-0.12103699999999999,2
-0.9098,-0.2476,-0.7374,0.42168999999999995,0.059771000000000005,0.904768,0
-0.8891,-0.2476,-0.7467,0.420498,0.052131,0.9057950000000001,0
1.4483,-0.9511,0.5775,-0.867341,0.004599,0.497692,1
1.4489,-0.9511,0.5786,-0.874149,0.00472,0.48563500000000004,1
1.4489,-0.9344,0.5775,-0.8633190000000001,0.059735,0.501111,1
-0.9296,-0.2752,-0.7251,0.432172,0.090186,0.8972700000000001,0
